# 3D point list with one line of data per point:
#   POINT3D_ID, X, Y, Z, R, G, B, ERROR, TRACK[] as (IMAGE_ID, POINT2D_IDX)
# Number of points: 418, mean track length: 2.8901821862348176
1574 2.7560301390683937 -1.2139221340626929 5.0444437584649471 100 61 32 0.56372384893148109 2 10805 3 11459 4 4353 1 4422
1575 2.6614400542049523 -1.4376760657045742 4.7429000042809122 99 65 37 0.43372441063219008 2 10620 3 11468 4 4368 1 4356
1576 2.3186003559105628 -2.8917112725009551 3.5552683646185059 128 106 87 1.3574726033139985 2 9342 3 11480 4 4678
1577 2.351893607471744 -2.8158664752608464 3.6395185963606664 111 70 39 0.62822043685621998 2 9397 3 11482 4 4680
1578 2.5412028523430021 -2.3649366336373556 4.2521189148571148 88 59 38 1.1497484276245269 2 9964 3 11492 4 4597
1579 2.5832546587882108 -2.2174812661637184 4.3738921558648389 98 65 42 1.8342456121298591 2 10099 3 11496 4 4619
1580 2.5938359474341302 -2.1474757824155657 4.4306312266055192 100 67 37 0.66183417804305233 2 10191 3 11498 4 4572 1 4089
1581 2.740169131526613 -1.2669705687809962 4.945039669444026 104 72 43 0.47588067452197336 2 10777 3 11513
1582 2.7871397877847985 -1.1401631335108415 5.1167459797456338 86 50 26 1.7529818196159066 2 10879 3 11514 4 4310
1583 2.8051719429635402 -1.0377651494422844 5.1629177314393937 96 64 38 1.3844035388928893 2 10932 3 11516 4 4339
1584 2.8201404192991322 -0.96385450517555959 5.1805543175536855 121 83 47 1.2452309285005623 2 10973 3 11517 4 4340
1585 2.5055722373794875 -2.4486296412197746 4.0897030324153727 82 52 29 1.2796480637357874 2 9928 3 11550
1586 2.5488525224151606 -2.3655712918809129 4.2621243640505515 79 52 34 0.92580165722404395 2 9965 3 11553 4 4616
1587 2.5491311693639331 -2.3055597251588509 4.2648279451545283 86 63 48 1.3238002761314698 2 10046 3 11556 4 4617
1588 2.6720712700732463 -1.7468322251220116 4.6962655496451662 100 61 30 1.4151059094458738 2 10493 3 11572 4 4460
1589 2.6877023115740468 -1.5015761627860567 4.759347498274046 109 74 42 1.359917327786224 2 10648 3 11574 4 4415
1590 2.2795340940886875 -2.9500575509199534 3.3894110027391005 98 66 40 0.95901608495864377 2 9210 3 11598 4 4703 4 4707 3 11608
1591 2.5741788544519904 -2.2779242221019835 4.3154197735487392 78 49 28 0.99442468836868536 2 10069 3 11603 4 4618 1 3998
1592 2.8278680145323647 -0.78018156429614693 5.2037521667926558 106 71 45 1.1270307510380397 2 11107 3 11606 4 4290
1593 2.3270364331178444 -2.8617962356299733 3.5187976669658934 96 65 42 0.53642899341377726 2 9358 3 11610 4 4701
1594 2.7766080717369035 -1.1621626205479765 4.9837595665079011 96 66 43 0.70510430817746572 2 10878 3 11615 1 4430
1595 2.8792923238307337 -0.6040171120673048 5.3171526983628015 100 79 64 0.45489710043942844 2 11254 3 11619 4 4284 1 4582
1596 2.5831554822029865 -2.3354798589215138 4.243320766105688 74 49 30 0.58774651289388991 2 10075 3 11626 4 4634
1597 2.8150815151858759 -1.0185489733662514 5.0820153826058156 118 78 48 0.6540637610302884 2 10961 3 11627 4 4355 1 4452
1598 2.2950203769340702 -3.0570793207744833 3.2920479401638243 100 84 66 1.7562625373172662 2 9145 3 11641 4 4780 3 11745 1 3306
1599 2.5530438891423182 -2.4469742358051354 4.0834494469503406 82 51 28 1.6977904897483693 2 10011 3 11661
1600 2.6671926525135521 -2.1212840901558438 4.4851216937682299 80 46 25 0.73809679476749845 2 10310 3 11673 4 4620
1601 2.7461265524479126 -1.7494210029188229 4.7386998914982987 99 60 28 0.95703563837076899 2 10563 3 11680 4 4561
1602 2.7493340489521816 -1.5096554571156413 4.7837947318983893 117 79 48 0.62448696653437341 2 10664 3 11682 4 4494
1603 2.8073757671132658 -1.2663743836713597 4.9715555711741102 73 43 24 0.044014813607747456 2 10859 3 11686
1604 2.8187802265694195 -1.2031701225783276 4.9960040705524005 92 62 41 1.8182668719204724 2 10893 3 11687 4 4418
1605 2.8390802318085879 -1.0365572401830965 5.0706230742182319 124 85 50 1.3146727550712023 2 10972 3 11690 4 4420
1606 2.434947397446261 -2.7982414627036976 3.7202922354455419 91 56 29 1.9215430775631752 2 9542 3 11699 4 4728
1607 2.6924270532884202 -1.6717503713412309 4.5742564895046094 106 67 33 1.9867908350274917 2 10562 3 11723 4 4563
1608 2.7036762877327609 -1.6204572280331715 4.6328438356250263 95 53 24 2.0391759298640117 2 10617 3 11724 4 4493
1609 2.7380117563063799 -1.442615240369947 4.7645196500374745 101 70 45 1.4635130996852312 2 10695 3 11729 4 4463
1610 2.8150636310512569 -1.1391685421582307 4.9942470079673225 102 70 44 1.4403205827323269 2 10949 3 11738 4 4383
1611 2.8392250883579662 -1.0353392135843955 5.052588535955616 126 84 49 0.95877046607704253 2 11008 3 11741 4 4421
1612 2.3040731521403122 -3.0594077861168461 3.3010565134787022 128 116 101 1.6494512820515841 2 9126 3 11747 4 4782
1613 2.7960211984999899 -1.2845117387098404 4.873137980267197 79 46 26 0.81823463917329653 2 10857 3 11758 4 4438
1614 2.8926125007247525 -0.68485169223653941 5.2289027130672672 108 120 123 1.1290307632404215 2 11251 3 11760 4 4299
1615 2.3447137565650662 -3.0285490109093782 3.3977932206797998 87 70 51 1.7020700023949786 2 9258 3 11762 4 4744
1616 2.7780788894651032 -1.4382597748704247 4.7687686001086229 102 69 39 1.3403580545020688 2 10731 3 11766 4 4512 2 10732 1 4382
1617 2.5082838470504396 -2.8079491698251826 3.780391335950477 87 56 31 1.1310051272977824 2 9696 3 11782 4 4754
1618 2.512928635679466 -2.7179818074395681 3.8425282056571524 87 55 27 0.91593645181305572 2 9716 3 11784 4 4710
1619 2.6364792825030516 -2.4592510540002044 4.2015800114156736 74 47 26 1.892081277626523 2 10135 3 11793 4 4683
1620 2.7106004085862923 -2.2275687717400112 4.4369291107604525 73 37 20 1.0651373129284365 2 10308 3 11800
1621 2.7313064236240296 -2.1249726091376981 4.502687775204568 64 36 19 0.68542384464567541 2 10396 3 11802 4 4655
1622 2.7432838865305427 -1.6745014203334865 4.6050308378878659 99 57 26 1.0128321085120655 2 10615 3 11809
1623 2.7682679318522787 -1.6217781014288533 4.6609999087261835 102 67 38 1.8588338507456192 2 10691 3 11810 4 4540
1624 2.7583489628905196 -1.5646707378671969 4.652487841974307 104 73 47 0.60525493480891002 2 10692 3 11812 4 4541
1625 2.8871164006800938 -1.1461349970601646 5.0344437621635079 94 55 30 1.5212350194864237 2 10971 3 11823 4 4503
1626 2.8874075708070905 -1.0310211741633404 5.0464350464096475 102 65 37 0.64340675800634228 2 11055 3 11825 4 4435
1627 2.504500102734752 -2.8121739087268542 3.7734922153507942 88 56 31 1.6728962934427187 2 9646 3 11848 4 4753
1628 2.52090414580011 -2.7227334286358298 3.8443659393594496 85 54 28 1.2782825134386142 2 9750 3 11850 4 4729
1629 2.5215111372446639 -2.6624805365268056 3.8379869788425731 83 48 25 0.027641103505156639 3 11853 4 4731
1630 2.6847152918441353 -2.3781690678110072 4.3241375040573962 87 50 24 0.75466991560528385 2 10215 3 11864 4 4684
1631 2.6614938680363691 -2.3447125150485126 4.2522152911575732 81 49 25 0.59627871381951691 2 10250 3 11865 4 4686 1 3997
1632 2.6860916630215868 -1.9397422901765218 4.3567768697647233 75 39 19 1.2022156090099547 2 10486 3 11874
1633 2.8660819593174729 -1.1424534157078379 4.9634100563301402 90 55 31 0.44845786091516454 2 11005 3 11888 1 4437
1634 2.9297954036513234 -0.79782414689496739 5.1167971495377476 110 107 103 0.69182788740105117 2 11258 3 11904 4 4425
1635 2.9391378844018079 -0.89448710033145751 5.0698076803231276 80 62 51 1.4282837583122863 2 11182 3 11919 4 4499 1 4500
1636 2.4530305865770443 -3.0511246902127436 3.4957124869011551 74 48 33 2.1000943108122399 2 9482 3 11924 1 3456
1637 2.5551541086694747 -2.8142814894577244 3.7788105523319295 84 53 29 2.3383479706662444 2 9707 3 11933 4 4789
1638 2.5771802429618162 -2.7237417081701216 3.8676262625203703 83 47 24 0.70418673117938113 2 9841 3 11935 4 4756
1639 2.6061404751253372 -2.6746297043991167 3.915040511021866 79 46 24 1.8056916354460075 2 9953 3 11937 4 4757
1640 2.6849902387504936 -2.4702203611749152 4.1704129697378658 103 67 32 1.9229249832197073 2 10213 3 11944 4 4711
1641 2.7266414054651622 -2.3817121181674832 4.2703932003228999 81 49 25 1.9229854653255334 2 10304 3 11948 4 4713
1642 2.7260646098821715 -2.3218289048465381 4.2796745925830768 75 44 24 1.0639647438148401 2 10343 3 11950 4 4714
1643 2.7342180641877913 -2.1612103098979598 4.3645748401272693 79 42 19 1.0361116195322135 2 10393 3 11954 4 4688
1644 2.7704112588179193 -2.1175924841229521 4.4282667092892245 84 45 20 0.75545900509323216 2 10456 3 11955
1645 2.7419028983898208 -1.9459939299792377 4.3909448366335058 73 42 22 1.4525701432430724 2 10529 3 11960 4 4658
1646 2.7373215512141149 -1.8848292577008949 4.3995449063550049 84 48 24 0.93530371786774946 2 10532 3 11962 4 4660
1647 2.9417136147889211 -1.1604973341683449 4.9874066036836018 91 58 34 1.374156304462564 2 11099 3 11974 4 4565
1648 2.523766300870816 -2.8933369974684005 3.6989225623241921 89 55 26 1.8084634955456158 2 9615 3 11989 4 4788
1649 2.7546645481393441 -2.0629689501385071 4.3826052155012043 76 40 19 1.8174336251842667 2 10485 3 12006 4 4677 2 10511
1650 2.9584819822806456 -1.0278876399512913 5.071897950928431 97 66 43 0.54503397844031354 2 11158 3 12019
1651 2.9632161202513267 -0.95226897621617057 5.0697922686104242 91 60 38 1.9124417309397572 2 11240 3 12021 4 4498
1652 2.9617035142080419 -0.86427828272067431 5.0809853173768875 91 87 86 0.51730049949330215 2 11260 3 12024 1 4510
1653 2.6200173014667967 -2.6476531364607472 3.9636228502193109 83 49 25 1.952697257409028 2 10005 3 12028 1 3806
1654 2.5703134663339529 -2.7928930681396973 3.7645249689479447 76 47 29 0.68346114280447345 2 9816 3 12033 4 4790
1655 2.958406075520533 -0.90252844133675869 5.0602783514326655 193 238 252 0.79577543075471413 2 11249 3 12035 1 4502
1656 2.5722459404381426 -2.7918856472089155 3.7706926287058797 76 50 34 0.64849801634756543 2 9817 3 12036 4 4785
1657 2.5804855473963917 -2.7934899934880124 3.7669011178131884 76 51 34 0.52789375304193209 2 9820 3 12038 4 4810
1658 2.7017576397054137 -2.5306558819081495 4.0924532505893083 95 62 30 1.5151086939304612 2 10190 3 12039 4 4783 1 3924
1659 2.979695514291933 -0.9301533761721833 5.0296344561253754 93 75 62 0.46061847501276459 2 11259 3 12040 1 4488
1660 2.7564222274800274 -2.3214026094881191 4.2456468486505248 60 33 17 0.64922359667642804 2 10371 3 12045 4 4741 1 4054
1661 2.5768855553858199 -2.8971763814813927 3.7132693760486069 87 54 28 1.0657329535564 2 9713 3 12055 4 4822
1662 2.619727781081123 -2.8199286762058802 3.7978889222096548 81 55 37 2.1294123383902264 2 9838 3 12059 4 4834
1663 2.6501858109520469 -2.7336933110491977 3.9110995088710014 83 48 25 0.75244838364132915 2 10002 3 12062 4 4791
1664 2.7526535595255601 -2.4753238585951136 4.1975419920989685 89 52 25 1.7496484928522087 2 10302 3 12069 4 4760
1665 2.7556136804793372 -2.4160113327379014 4.2176257494753004 69 38 18 0.38996987639109593 2 10340 3 12071 4 4761
1666 2.7930332725206961 -2.2543001421340834 4.3284904084907962 80 44 22 2.6548700560480181 2 10454 3 12075 4 4715
1667 2.8164202195193071 -1.9539632460590253 4.4287653912540161 75 37 18 1.2345188872354431 2 10607 3 12078 4 4698
1668 2.94887925704528 -1.2794249041387173 4.8618864431394808 95 60 34 1.1862694515490901 2 11041 3 12089 4 4602
1669 2.8148886884939088 -1.9453395744016071 4.4262477216048266 73 36 18 1.1740359232999718 2 10608 3 12112 4 4689
1670 2.5908823707986688 -2.9056613539760221 3.6819537647381102 85 51 26 0.51603838438902372 2 9796 3 12132 4 4862
1671 2.7865552374823848 -1.9154328872722735 4.3053200420976729 75 43 23 1.368988255601961 2 10643 3 12139 4 4690 3 12134 1 4181
1672 2.7911887152375638 -1.9240515239264804 4.3101876434617381 78 46 24 0.71889473221865907 2 10606 3 12140 1 4179
1673 2.8042343330418 -2.2419507134018759 4.2584230796374651 62 32 19 0.14168342285690091 2 10484 3 12141 4 4746
1674 2.6405038205027234 -2.9034933650188721 3.7376691603747059 97 67 42 0.88718796636236652 2 9835 3 12154 4 4870
1675 2.6904469775380462 -2.8256742102386641 3.8279463927810591 84 55 35 1.8158198158496652 2 10042 3 12157 4 4878
1676 2.6910253573569625 -2.7435043060234197 3.8722008088946778 74 46 25 0.85515681715812641 2 10068 3 12161 4 4858
1677 2.7072927468580379 -2.7353979945657398 3.9183905808159158 82 51 27 0.3175069399295643 2 10088 3 12163 4 4836
1678 2.7119130189413747 -2.684115298647554 3.9471008243922059 93 63 35 2.06587334384731 2 10089 3 12164 4 4837
1679 2.7100439800561023 -2.6302019811543209 3.9333610715888057 77 50 27 0.46437905557393955 3 12165 1 3875
1680 2.7767472553244898 -2.5666559385307206 4.12232939255769 58 30 16 2.0305754969078804 2 10300 3 12167 4 4794
1681 2.7686207625950372 -2.2397392299429164 4.1215574054634185 68 35 17 1.4037654794635628 2 10483 3 12172 4 4765
1682 2.8221059911282902 -1.9953209706162747 4.3071552865368217 100 62 31 0.67506732249544699 2 10605 3 12175 4 4733
1683 2.8555319655407589 -1.900083964607389 4.3830508203538106 99 64 36 1.9670090441576022 2 10683 3 12177 4 4734
1684 2.999098398097662 -1.1485665576278568 4.8544165150528924 105 68 40 1.9050092318076679 2 11236 3 12188 4 4604
1685 2.6010001398217022 -3.0293419463479272 3.5896841873427237 68 39 22 0.76347925919226789 2 9704 3 12194 4 4899
1686 2.6746969428246867 -2.8187944763731432 3.8376378510199789 82 53 33 1.3995424286012996 2 9950 3 12201 4 4856
1687 2.9335726732909331 -1.4430582641739411 4.6532366383696351 95 59 31 0.41994754210083135 2 10994 3 12226 4 4672
1688 2.7004353141721911 -2.8042100015173062 3.8264472346738438 67 39 22 0.17021479804852388 2 10063 3 12243 4 4871
1689 3.0303414620264131 -1.0857742472070329 4.873286879344441 95 112 119 0.47013595034607453 2 11281 3 12245 1 4455
1690 3.0328497571335027 -1.1081180997615536 4.8597779024914329 122 156 171 0.4556684083052483 2 11268 3 12248 4 4630
1691 2.6955703302674312 -3.2930963993160836 3.7125717717007714 115 135 157 0.92980791237821048 2 9700 4 4978
1692 2.7074449595426442 -2.9110139962255701 3.7635759768727581 96 69 45 1.0559869826614461 2 9946 3 12266 4 4905
1693 2.7441964128053553 -2.82146462611946 3.8421116887903253 57 38 25 1.4175633846933493 2 10123 3 12269 4 4902
1694 2.7752194051497296 -2.6897907518629611 3.964292203323672 82 44 21 1.8655744169826651 2 10207 3 12274 4 4880
1695 2.819585809692069 -2.5151637380922027 4.0880082476855835 75 42 22 1.7107182227370519 2 10385 3 12275 4 4838
1696 2.8424874239193367 -2.3605547690202648 4.1946676922784034 69 38 21 1.4928775753121288 2 10481 3 12277 4 4796
1697 2.8322526191726394 -2.2445060683800593 4.1454387767254346 81 46 25 1.0971222875930708 2 10524 3 12279 4 4798
1698 2.8816699728141129 -1.9951212510905045 4.315843334100367 98 62 36 0.61136642569205657 2 10681 3 12282 4 4768
1699 3.0453882367766294 -1.2119658249536907 4.8631024263743274 87 57 35 1.7266410058847503 2 11204 3 12298 4 4642
1700 3.032120023572126 -1.1530213118650023 4.7987672931707781 99 74 53 0.8860648266085368 2 11265 3 12299 4 4643
1701 2.8589775062407345 -2.3025238403574537 4.2029299507457605 83 47 23 0.086068910840986251 3 12315 4 4820
1702 3.0512160673443902 -1.1610733437155525 4.8294523501914934 91 89 86 1.0598150956970755 2 11279 3 12336 4 4662
1703 2.9547888682403576 -1.7616117183204603 4.4799739569034713 96 58 31 1.4537879814537749 2 10882 3 12339 4 4739 1 4319
1704 2.7599352051833761 -2.8226077682217681 3.8295191983526609 62 41 27 0.654351289994482 2 10182 3 12340 1 3807
1705 2.9624299008223991 -1.7645729905679897 4.4850240330301467 80 45 23 1.1904928198884006 2 10883 3 12342 4 4742 2 10884 1 4322
1706 2.8829465819756304 -2.1488724240354262 4.0949940080916409 66 41 22 1.5785926159851471 2 10659 4 4846 3 12432
1707 2.7378326813834271 -3.2219349057414366 3.6653619382788376 132 165 196 1.6220255342033447 2 9815 3 12353 4 5008
1708 2.7695052696368427 -2.9130760607650923 3.7814390603333701 95 67 42 1.0506825810335239 2 10085 3 12360 4 4941
1709 2.8493025798065723 -2.1450388066482633 4.0909056824207921 70 45 23 0.47341077467534909 2 10641 3 12376 1 4114
1710 2.9402729152233422 -1.8726613638913694 4.3472010292456424 108 68 34 1.5566765144825441 2 10846 3 12383 1 4254
1711 2.9589095415384832 -1.8371828430938395 4.421854389095075 81 42 22 1.4093773428938519 2 10848 3 12385 4 4769
1712 2.9940070130226317 -1.7381337971798487 4.502650397965227 106 67 35 2.1810387541683514 2 10916 3 12387 4 4770
1713 3.0766903304889137 -1.451690928211713 4.7281368070233967 98 64 37 0.97715557339722048 2 11152 3 12391 4 4719
1714 2.88305882284721 -2.0727436352784765 4.1455751115650417 97 62 35 1.2703872911408991 2 10721 3 12417 4 4817
1715 2.7514483596497121 -3.1794944952836435 3.6397867914519635 119 149 175 0.99482842065151944 2 9936 3 12429 4 5010
1716 3.1033557272640322 -1.3241609921452391 4.674061673041388 73 62 54 0.59487643694881798 2 11304 3 12440 4 4737
1717 2.863612001197263 -2.8359321633764738 3.9045370401700952 67 47 32 0.93636532821835294 2 10296 3 12449 4 4953
1718 2.8326016529567433 -2.7784041921713802 3.8267428139097559 74 40 20 1.6268546763371912 2 10295 3 12451 4 4954
1719 2.8525706430835132 -2.719956439295852 3.8634650542251752 77 48 29 1.8037686921532985 2 10374 3 12452
1720 2.8628303805033837 -2.6798791729154807 3.9144018826477947 60 36 21 0.2736386137774936 2 10383 3 12453
1721 2.913258048334054 -2.1867524912244209 4.1133607301903794 87 53 29 1.8204638375772817 2 10678 3 12458 4 4844
1722 2.9173207504674412 -2.1358196792191002 4.1352279359353066 94 61 34 1.085459251298394 2 10713 3 12460 4 4845
1723 2.9355941770824767 -2.0772510963838253 4.1573343006347168 98 64 38 0.97762448848763572 2 10755 3 12461 4 4847
1724 3.1136473310245161 -1.4628040421417166 4.6671233935519121 86 52 31 2.0006481063897241 2 11200 3 12476 4 4747
1725 3.076551207184937 -1.3859962584235994 4.6184498161724585 98 65 42 1.3302994377515269 2 11232 3 12477
1726 3.0962902430601371 -1.3531198520446932 4.6427939315597788 169 219 236 0.63012718242590082 2 11264 3 12478 4 4740
1727 3.1006532492139676 -1.3178920632900839 4.6710865544651865 102 137 152 0.74622989850812038 2 11327 3 12479 4 4722 1 4432
1728 3.0059684392678117 -1.9542113342868155 4.3079401273475817 103 68 40 0.29075029564111426 2 10881 3 12498 1 4253
1729 3.1184899279259817 -1.3736464950430654 4.6166235157203523 98 66 44 0.62656845006467243 2 11326 3 12500 4 4748 1 4423
1730 2.8839078264532212 -2.7205408484362197 3.8732324614622771 71 45 25 1.5851868969023526 2 10417 3 12519 4 4955
1731 2.9029653891274054 -2.6623553359884 3.9026216231902753 59 34 20 2.1298857208336055 2 10450 3 12520 4 4942
1732 2.9532000568304091 -2.2340618805205108 4.0831486648027475 89 57 33 0.98968339519997583 2 10720 3 12528 4 4893
1733 2.9806104454712203 -2.1950562851294584 4.1384347049646273 94 62 37 2.1629848453946017 2 10751 3 12529 4 4884
1734 2.9783924575381846 -2.1409358013474211 4.1502278189296993 100 63 33 1.6113636246122429 2 10753 3 12530 4 4885
1735 3.0027023002704256 -2.080912061222131 4.189982475872104 93 60 35 1.2669847031069132 2 10819 3 12532 4 4887
1736 2.9980920353381686 -2.0348062131743312 4.2155483480548748 83 53 33 1.0549449695488791 2 10840 3 12534
1737 3.0563647936102423 -1.8838614831483316 4.3409659788344639 111 72 40 1.0149270238502728 2 10987 3 12537 4 4849
1738 3.071340437080472 -1.6518351407854612 4.4041107699822604 104 63 32 1.6629705851129213 2 11146 3 12538 4 4804
1739 3.0349215526191422 -1.9695964028121717 4.2790168091718952 106 74 45 0.98417391153460665 2 10910 3 12551 1 4251
1740 2.9888103156871315 -1.9372611289836539 4.1123474718697315 114 84 54 1.9952211663118071 3 12552 4 4869 3 12566 1 4213
1741 2.8312808609044371 -3.0994581683999405 3.5910435166269226 108 116 123 0.83456378310528012 2 10175 3 12554 4 5048 1 3700
1742 2.8325194686216664 -3.0988261414401959 3.5800071999126519 154 202 249 0.91299485364561694 2 10174 3 12556 4 5056 1 3699
1743 3.0295526656457947 -1.9439710456602137 4.1909554807662106 98 66 39 1.3883561333984824 2 10960 3 12557 4 4872
1744 2.943474541036633 -2.7268995619469001 3.8932517596222382 72 43 24 1.8060746745777241 2 10445 3 12570 4 4989
1745 3.0145004885942774 -2.2319204053203756 4.1072739996695056 101 69 41 0.98166737863096998 2 10804 3 12582 4 4906
1746 3.0427912919459219 -2.1455074450063463 4.1740614554189941 98 63 33 2.1863313762777339 2 10818 3 12584 4 4921
1747 3.0556179519533311 -1.9310058227272955 4.2139057966898665 107 89 63 0.84436283273875101 2 10985 3 12590 4 4889
1748 3.0480137356284556 -1.8730402356926437 4.2139236178425907 87 50 26 2.0800850030727425 2 10986 3 12591 4 4891
1749 3.1020009667162829 -1.7573768153789047 4.3573265002085657 103 68 38 1.7444330509084527 2 11115 3 12593 4 4850
1750 3.1622461109997153 -1.521496565619727 4.4846450002052034 85 95 100 0.79719397277049397 2 11324 3 12610 4 4824 1 4406
1751 3.1594611715461625 -1.5160995814802387 4.4781772064277927 96 123 135 0.23823577893024442 2 11339 3 12611 4 4821
1752 3.1635414905093389 -1.5981591190412003 4.4524890336471525 96 104 106 0.76543384447698759 2 11274 3 12614 4 4854
1753 2.957350883116499 -2.3674313201511259 3.8943186994134908 78 43 20 0.56136744941776595 2 10672 3 12615 4 4944
1754 2.9601098129139651 -2.3650818846873825 3.8850044285141028 81 45 21 0.83207689381004446 2 10712 3 12616 1 4050
1755 3.1622426034599651 -1.6056411207043133 4.4334009229399021 142 159 169 0.46534079519445021 2 11263 3 12617 4 4860
1756 2.9361739510426039 -2.4510467017606254 3.7992412062203496 100 70 45 0.64522837207987138 2 10657 3 12619 4 4979
1757 3.1585619161924838 -1.5997492574562362 4.4231127197979347 143 148 155 1.5205334234418186 2 11273 3 12621 4 4866 3 12609
1758 3.169912520297955 -1.6014198825604196 4.4223928001217736 188 223 244 0.2758246636967347 2 11296 3 12622 4 4867
1759 2.9403906991278674 -2.4975531193756098 3.7859030929198783 91 58 31 1.1546394417768937 2 10580 3 12635 4 4996
1760 2.9879441286097084 -2.3553386558592129 3.8967121894578627 90 57 33 2.428092021338967 2 10743 3 12638 4 4962
1761 3.0278174882742834 -2.2659468701353971 3.9808637996071958 94 61 34 1.8809276696526969 2 10833 3 12641 4 4964
1762 3.0495089050224764 -2.185159002899336 4.059991582110241 97 59 31 2.3213361031568565 2 10869 3 12644 4 4965
1764 3.0992810285508718 -1.9648910606173038 4.1683238175764004 128 108 81 2.1360400590923105 2 11069 3 12649 4 4908
1765 3.1069810974945407 -1.8750366156389315 4.2283110949887979 158 142 117 1.7697538823676997 2 11072 3 12652 4 4904
1766 3.1079605541269442 -1.805135410486723 4.2438494696359426 105 71 42 1.419491557706434 2 11125 3 12654 4 4892
1767 3.1368489690776507 -1.7046025237557771 4.2986540418901003 93 60 36 1.4646525264674628 2 11195 3 12656 4 4896
1768 3.1811945058529032 -1.6108912860718012 4.4190570214148455 104 74 51 1.1878806498699408 2 11322 3 12657 4 4875 1 4394
1769 3.0987086630968563 -2.0107644990010889 4.1544144267208667 89 54 30 1.2699219017757264 2 11036 3 12665 4 4935
1770 3.0918810491774904 -2.0096238216445688 4.1552329747510521 99 65 37 0.44163291911452979 2 11032 3 12666 4 4930
1773 3.1808960966109465 -1.6157648461986485 4.4006203964900443 104 88 74 0.4320453204510839 2 11321 3 12671 4 4874 1 4393
1774 3.112672984353797 -1.8439597366784914 4.2206017158615801 119 86 58 1.2809078202107866 2 11124 3 12672 4 4897 2 11108
1775 3.1349076924950463 -1.8458440594960055 4.2083957297897676 109 80 61 0.40182972549707879 2 11167 3 12678 1 4293
1776 3.0947926520670594 -2.2618895412689897 4.0298456059615866 73 45 26 1.2697164391710931 2 10885 3 12686 4 4999
1777 3.1579573965268088 -2.0882096734710629 4.2132593183637974 86 56 34 1.1578606570133598 3 12689 4 4967
1778 2.9997455055183275 -2.5051583287491868 3.794012196285796 89 62 40 1.6326350443516713 2 10670 3 12698 4 5016
1779 3.0537792627123981 -2.359844099767944 3.9216594525015722 97 64 35 2.2950163721715087 2 10831 3 12701 4 4997
1780 3.1015480365713599 -2.2660762927127251 4.0403234329425706 65 42 25 1.5329160106956787 2 10886 3 12705 4 5004 3 12685
1781 3.1533065112187426 -2.0798385419604086 4.1544126532413124 82 53 32 1.5020540291397655 2 11049 3 12710
1782 3.1463704223907967 -2.0307073036384811 4.1784462002500522 102 67 39 0.5832238416297878 2 11050 3 12711 4 4947
1783 3.1520889911394203 -2.0282012920060506 4.1818189682506528 105 70 42 0.68250285538277133 2 11068 3 12712 4 4968
1784 3.2164060030352819 -1.7087999447331046 4.3517272900442432 86 64 47 0.71100062135278763 2 11337 3 12717 4 4909
1785 2.9672414624438614 -2.5634471502231211 3.6851576447414462 92 58 30 0.76260976868567754 2 10654 3 12724 4 5038
1786 3.2116495683017243 -1.7456829614604312 4.2928726830384134 84 75 65 1.1392667977067803 2 11293 3 12727 4 4933 4 4934 3 12729
1787 3.2207569314871827 -1.747150486782856 4.305593272589908 88 86 80 0.75315310341707209 2 11320 3 12728 4 4936
1788 3.1772142815077236 -1.9232007167457061 4.148305544071957 117 87 67 0.22771863032624412 2 11175 3 12738 4 4974 1 4289
1789 3.1128769946103292 -2.2489366755237965 3.9564681402062662 84 52 29 2.6729447170840488 2 10943 3 12750 4 5028
1790 3.1696079377860413 -2.0132392885632826 4.0804153475706038 72 49 34 1.4196535215382025 2 11139 3 12755 4 5000
1791 3.1864092221610263 -1.9154456241983926 4.1393164025106639 94 63 42 1.2079162024105607 2 11193 3 12758
1792 3.2304358058392961 -1.7886844863377174 4.2463193393643284 88 70 52 0.97818621644535442 2 11336 3 12764 4 4949
1793 3.2328021516000458 -1.7994540855289438 4.2344315324221435 105 79 59 1.1279848757042299 2 11335 3 12766 4 4973 1 4357
1795 3.1536484264616926 -2.3694201094839662 3.9417814669948266 84 53 31 1.8565165314210628 2 10889 3 12783 4 5051
1796 3.1801110208925683 -2.3137021082611628 3.9769693479231893 88 58 34 0.76545363343668138 2 10967 3 12785 4 5052
1797 3.1612202137815437 -2.2621471550185097 3.9305991451117244 74 40 20 1.1425393663971735 2 11030 3 12786 4 5044
1798 3.2131698721698392 -2.0772239727846209 4.0813562683035185 88 56 34 0.77504332599549353 2 11137 3 12790 4 5017
1799 3.2433134418161806 -1.9138889638030814 4.1757963409592715 81 53 32 1.7817421233331245 2 11272 3 12794 4 4982
1800 3.1772743355981197 -2.1931920916730729 3.9607266356212198 82 51 27 0.10209156594876767 2 11063 3 12803 4 5039
1801 3.2472673353281363 -1.8666837782094539 4.1592298643258658 109 126 131 0.66751119534994785 2 11334 3 12804 4 5002
1802 3.262731322717817 -1.9117898639319577 4.1115305588010873 102 95 84 0.29811271909089526 2 11341 3 12815 4 5014
1803 3.2185554869452124 -2.3197480758937119 3.9341800757042806 82 50 27 1.6286738715183244 2 11045 3 12821 4 5064
1804 3.2115793168261635 -2.2632308073375791 3.9393897224508354 75 43 23 1.6070443516706465 2 11046 3 12822 4 5061
1805 3.3086885077873407 -2.0237909530009932 4.1396075824728458 86 55 31 1.4856756814107053 2 11319 3 12828 4 5055
1806 3.2403453026814035 -2.1171636237455083 3.9762113127083945 96 63 38 1.0763983295241903 2 11177 3 12836 4 5059
1807 3.2400398349856645 -2.4702374031673067 3.8596265853193827 106 147 167 1.30298159956555 2 11019 3 12845 4 5107
1808 3.3217381120954119 -2.1443540153544061 3.9408052409946706 114 147 159 1.4270090396941855 2 11318 3 12873 4 5091 1 4248
1809 3.323270389092944 -2.1685369055573629 3.9325339692712564 111 138 147 1.0031071902095106 2 11270 3 12875 1 4244
1812 3.3203457968976546 -2.1256204204659497 3.939287956993426 81 89 90 0.87764317747833986 2 11333 3 12878 4 5088
1813 3.3015277380351051 -2.3348844988533459 3.798268072452526 81 49 29 1.5813042667319657 2 11184 3 12880
1814 3.3893183500019815 -2.3453219909671237 3.8574368578628233 81 51 29 2.0928316728456613 2 11330 3 12896
1815 3.3590963387508324 -2.3628973247090421 3.7591014298838763 77 70 62 0.84210590977403021 2 11262 3 12905 4 5138 1 4174
1816 3.3949440657668166 -2.3849027144578905 3.7967911230681981 171 215 255 0.41092357748274821 2 11283 3 12910 4 5143
1817 -0.7971461290455506 -2.5424664584672971 1.5830543124988823 40 38 40 0.79954798349758494 2 2048 4 632
1818 -1.2317390629561182 -0.76658828033958426 3.8078458596367302 163 142 132 1.664025408649791 2 4045 4 662 1 1859
1821 -1.0698788902251888 -1.127518951140758 3.6210245660632454 113 86 69 0.71152088111042311 2 4157 3 3726 4 745
1822 -0.77121502037216128 -2.5011643703162934 2.1016412755126508 94 83 76 0.80817047844916567 3 3206 4 764
1824 -0.71154176182262718 -2.1711131576483673 2.8067425156758716 90 71 58 0.4900637398293845 3 4087 4 953
1825 -0.53567696886619998 -2.9925988488268565 1.8805868583068477 84 65 56 1.1118155034928892 3 3858 4 1009
1826 -0.72749505100770517 -1.1308169752658408 3.7830366969913092 143 112 87 0.13020569820420569 2 4784 4 1036
1827 -0.72220779776132726 -1.1348991759753442 3.8005329091146969 145 113 88 1.5947729201179968 2 4847 3 4599 4 1064
1828 -0.57687129176495566 -2.0571857807890268 2.8451741569545286 113 83 60 1.1936905128601731 2 4535 3 4445 4 1090
1829 -0.68972078504784284 -1.1950695603456394 3.8361281217859888 113 82 60 1.3306523659185434 2 4863 3 4687 4 1100
1830 -0.67353201828336373 -1.1310464339584589 3.8074229254229337 145 112 79 0.52723161379269989 2 4877 4 1103
1831 -0.66540212222107065 -1.1276837398892634 3.8189077755566636 129 97 71 0.31475353827770908 2 4935 4 1133
1832 -0.44904316311120446 -2.9046283620598756 1.9408200199052257 98 69 51 2.1645707276704971 2 4150 3 4222 4 1155
1833 -0.638163909016914 -1.192902024136729 3.8691152536725237 117 84 56 2.0737486884086844 2 5013 3 4821 4 1172
1834 -0.55599267016567522 -2.200629326515597 2.9429555613396792 98 69 47 0.3901667527996508 3 4574 4 1186
1835 -0.41105327016164345 -2.9114175040640369 1.9530551552001396 98 69 49 0.71686947220459096 2 4257 3 4329 4 1224
1836 -0.52288266105257808 -2.2516575296247208 2.9813347177184397 92 68 51 0.32901742796199329 3 4710 4 1226
1837 -0.51798233106809222 -2.1694922103265988 3.0708135252361384 90 67 52 1.9059309163602935 2 4714 4 1228
1838 -0.51490122903388591 -2.105810375103415 3.094229284510793 100 71 52 0.82446596345645173 2 4744 4 1255
1839 -0.37392647631360815 -2.9119315985664374 1.9676135800684158 92 66 51 1.1274423248896126 2 4351 3 4478 4 1288
1841 -0.43785307390392852 -1.26665495256387 3.8821580594127223 124 89 61 2.2081013053074821 2 5341 3 5285 4 1371
1842 -0.41193899961667774 -1.3412104394003088 3.8610005076326885 123 91 68 2.4505605784660829 2 5304 3 5335 4 1411
1843 -0.30450757249258048 -3.0415123469968148 1.9656712172022377 97 67 48 1.0228084568465805 2 4495 3 4791 4 1414 1 1949
1844 -0.32124847858814248 -2.1819355254526007 3.1501191831804114 92 68 52 0.19797080905893752 2 5054 4 1516
1845 -0.31385375395288012 -1.1847358103350805 4.0094605573188362 123 95 75 0.22047414107516072 3 5576 4 1529
1846 -0.29286926115614781 -1.1482217146848792 3.9281780812242282 147 110 76 0.93737948723002351 2 5701 3 5578 4 1560
1847 -0.22069758628826314 -2.9747522168485974 2.0482215374036121 117 91 75 1.4072057103299942 2 4645 3 5036 4 1585
1848 -0.25366914288468972 -1.3522727412830164 3.9830639293940191 115 85 65 1.8838210481696465 2 5736 3 5640 4 1629
1849 -0.24371368923821218 -1.2638164595672017 3.9806973159748118 135 100 73 2.6462919586701976 2 5816 3 5687 4 1630
1850 -0.18046466040388659 -2.9818422415819423 2.0609009935417522 107 79 60 2.1943910347909843 2 4710 3 5149 4 1654
1851 -0.22918769882497453 -2.2695669757082562 3.102731978313801 96 68 48 1.6785677827380887 3 5450 4 1659
1852 -0.19554725697746872 -1.1989823986145383 3.9953062708924314 160 145 127 1.821701941532248 2 5870 3 5820 4 1675
1853 -0.11199995876092178 -1.1990600540194216 4.0257393694289991 175 159 144 2.0431087164842521 2 5989 3 5996 4 1738
1854 -0.079525862875412745 -1.3456967241892426 4.0820377069652016 107 76 58 1.3703077561579586 2 6016 3 6093 4 1783
1855 -0.058429429468574934 -1.2002872306228196 4.0598911640901445 166 139 115 1.2932182346328203 2 6063 3 6147 4 1786
1856 -0.068194400816244727 -2.2772911129605093 3.1771717327831945 100 73 53 1.2339276154606225 3 5852 4 1833
1857 -0.0365379370811732 -2.1326780954228521 3.191955332953146 105 76 57 0.30208944875880656 2 5616 4 1838
1858 -0.020445201457424067 -2.1326567313199702 3.1074889169643889 118 88 64 1.2447912800994358 3 6020 4 1840
1859 -0.0065260541072641454 -1.3495865783654932 4.0939646686876516 106 74 56 1.7184118514435009 2 6148 3 6215 4 1849
1860 0.017456228106521476 -2.1849123195608477 3.1480275872619963 108 81 60 0.45274717432679257 3 6082 4 1899
1861 0.050553400396052106 -1.3409398540826478 4.1321505222769819 109 86 70 0.79501425969577511 2 6229 3 6387 4 1910
1862 0.064724163258476908 -2.1882547290413452 3.165646814347971 156 138 126 0.40237574026239964 3 6199 4 1962
1863 0.073757221061883427 -2.1367682148020708 3.171338184822714 124 93 69 1.7917913848182507 2 5858 3 6203 4 1964
1864 0.17281998582140853 -1.3501804673838906 4.178522894826397 125 95 73 1.4001679999422783 2 6379 3 6645 4 2032
1865 0.23329267604699605 -1.4064053964760743 4.218875477501177 146 114 85 2.0687618264385903 2 6474 3 6820 4 2094
1866 0.22466437888456511 -1.3492594571580334 4.2117195476174816 138 106 80 1.7292444784352046 2 6475 3 6735 4 2095
1867 0.23833304351259044 -2.0677806839955166 3.274912711431277 146 119 96 0.38510719918747915 3 6685 4 2135
1868 0.31553865810505244 -1.3939833742351779 4.1281014813439318 123 92 71 2.8008166294238297 2 6621 3 6910 4 2176
1869 0.18718041996517337 -3.0529790425558931 2.2125247549733418 118 90 70 1.2370318178055801 2 5413 3 6290 4 2196
1871 0.21046261430875662 -2.9422993275772984 2.2529034568446225 136 108 87 0.08711723985512651 3 6407 4 2232
1872 0.36444524103350551 -2.0734990819303429 3.3244282111294909 164 145 125 1.4873738398227938 3 6970 4 2293
1873 0.37629371619055452 -2.2584768078947102 3.324494659146545 113 85 62 1.2757223271050837 2 6290 3 6936 4 2359
1874 0.48913133122337871 -1.4839525102235551 4.3555012380152665 132 100 74 0.94073340049693477 2 6915 4 2367
1875 0.5235606470432288 -1.3373589441909188 4.3475670701556739 145 111 80 1.8570285062516774 2 7032 3 7268 4 2401
1876 0.44958337108798091 -2.2657386133710316 3.3552779497772054 141 118 97 1.9229979181793289 2 6399 3 7139 4 2445
1877 0.43870005442610166 -2.2581934989000172 3.3542386575084802 128 101 76 0.71135220634425 2 6371 4 2478
1878 0.31489454047932713 -3.3590583926249664 2.5088739164677314 215 245 254 0.24722258881127784 3 6755 4 2512
1879 0.51269218852865261 -2.3973640779468814 3.436292956330556 125 97 76 1.0833653233594829 3 7196 4 2587
1880 0.53051046437289506 -2.334988773114222 3.400341205909271 116 89 66 0.11009902355839166 3 7278 4 2589
1881 0.5577683462504055 -2.2216470590727067 3.3701952147227878 160 130 104 0.067437039536176524 3 7326 4 2618
1882 0.60524115753921137 -2.2225546122165967 3.3735233480680735 138 108 82 1.1741815472296331 3 7391 4 2692
1884 0.64602064067570797 -2.4364024238680768 3.4843356826826355 109 80 58 1.0079260892098352 3 7469 4 2759
1885 0.85260424063065143 -1.3535547331361821 4.4945001516715868 126 96 69 0.30144989499753883 2 7365 3 7821 4 2807
1886 0.79860469718951543 -2.150382147996841 3.5230573733643693 126 96 72 0.81938150346743654 3 7765 4 2903
1887 1.1458013380568755 -1.4413790147633163 4.7955663847868379 126 93 66 1.573359129300324 2 7661 4 2995
1888 1.1669890143716339 -1.2178467422131587 4.7965625049462215 141 108 81 0.31728155780081324 3 8281 4 2999
1889 1.2268405077457261 -1.2170634105228872 4.8286374370136356 159 140 120 0.94304341901202815 3 8362 4 3030
1891 1.2400004966658851 -1.216692307109257 4.8344279652030009 160 139 115 0.58335669197465312 3 8391 4 3055
1893 1.2438026249741214 -1.0334123861263607 4.7253832721558604 223 247 255 2.7112463245441334 3 8400 4 3062
1894 1.284282873146928 -0.98935967530120672 4.8394116860331096 222 246 255 1.1772108551436058 3 8472 4 3074
1895 1.3491086381145545 -0.98512332681193315 4.8988772356237025 161 123 90 0.76202481983585013 3 8560 4 3098
1896 1.2551868259893482 -1.4008675940317734 4.568440396237162 168 129 89 0.81393151794831287 3 8459 4 3123
1897 1.3029903933943168 -1.2082339275201723 4.8910152244750416 166 127 89 2.2145955164431639 3 8467 4 3124
1898 1.3405975977329236 -0.98755011038717111 4.872133898839496 166 126 90 2.2698976163043429 3 8501 4 3130
1900 1.371382214827304 -1.2277023002532064 4.6776259365622526 137 99 68 0.34128672487366285 3 8605 4 3184
1901 1.4125308841625241 -1.0578715564186232 4.9220216415207592 151 113 80 1.620348903168799 3 8606 4 3187
1902 1.416928133008865 -0.99330176464146913 4.8917814198183933 140 110 89 2.0764329703646682 3 8658 4 3188
1903 1.4214621759933412 -1.342806408789228 4.5996886314477798 144 106 71 0.52145321544411938 3 8744 4 3242
1904 1.4850223698385119 -1.3424143097297252 4.6307051203509655 126 85 54 0.37434685179488664 3 8857 4 3278
1905 1.440284588069874 -1.5078399921298222 4.6004122614034184 130 92 61 1.6846902801400916 3 8739 4 3306
1906 1.3528721890335706 -2.0078209677208898 4.1462357366789853 131 98 73 1.0529148250266904 4 3318 1 3285
1908 1.3750126324155103 -2.2075477829245345 3.8673375696805872 132 101 76 1.1692742444038546 3 8835 4 3415
1909 1.6037295777561111 -1.5140958817745771 4.6291225742582434 104 72 53 0.58646554050818822 3 9099 4 3419
1910 1.6534452599688862 -1.3234687813905202 4.8011915240228626 127 103 88 0.96925437297619954 2 8822 3 9125 4 3431
1911 1.4076331652560898 -2.1331313831346144 3.8455196310818209 169 139 109 0.057736679049785536 3 8893 4 3435
1912 1.6471800549646152 -1.5708911737483111 4.5587666729768399 128 89 57 1.9825241459066321 2 8697 4 3441 1 3795
1913 1.3773117283658853 -2.5205312653490326 3.8888817025354321 110 79 59 1.7968143765748281 3 8791 4 3458
1914 1.3790097292867416 -2.4668994387030665 3.854073820773749 139 106 74 1.3667907877734304 3 8824 4 3459
1915 1.4117172358151899 -2.2389479122387237 3.7840885260043553 133 100 74 1.3000787160000145 3 8957 4 3463
1916 1.3749261836576356 -2.4819717853796703 3.8607809051663695 128 93 65 0.14969001515497021 3 8780 4 3482
1917 1.4118669238634265 -2.294937297488032 3.8095577717607068 127 93 70 1.2463635134171009 3 8908 4 3487
1918 1.1110214241850005 -3.1224483689065048 2.856676688625523 112 72 44 0.57333566253517776 2 7120 4 3503
1919 1.3771459284463345 -2.4822491218493417 3.8310975825552918 121 88 61 0.023766032109091791 3 8792 4 3505
1920 1.4691790790219483 -2.0851456762994607 4.0159495115926909 147 112 80 2.136537530755874 3 8964 4 3509
1921 1.4478924903664763 -2.2359468437445189 3.8006904639699908 133 94 58 1.151487082504232 3 9001 4 3520
1922 1.4377360880140431 -2.5287612280908114 3.8974903232988183 101 69 48 1.7711506040098719 3 8947 4 3536
1923 1.4409975960463999 -2.3551692392229135 3.8506555916816216 114 83 62 1.0575942707113615 3 8953 4 3539
1924 1.4670810683603444 -2.2984645902005445 3.8308416516902897 111 82 61 1.208416886521285 3 9036 4 3541
1925 1.4784093087001409 -2.4449467637108251 3.9982669996850912 102 73 53 2.0347622018748002 2 7720 4 3568
1926 1.4744641999550518 -2.2989864333259855 3.8338460603362687 110 81 57 1.1383692991049426 3 9081 4 3571
1927 1.4600514762340209 -2.5249235685017131 3.9699089441104487 142 102 66 0.20554058576318693 3 8949 4 3585
1928 1.4571981525662123 -2.6055135145145014 3.9671052194018221 153 114 77 0.085284193126662911 3 8904 4 3590
1929 1.4966380380962332 -2.530656702498487 3.9363692724965311 137 96 62 0.7790932727553479 3 9032 4 3615
1931 1.503982172694206 -2.3920334195798469 3.7459033074053432 131 91 56 1.31065320110485 3 9152 4 3645
1932 2.0894424523307564 -1.8701819491918863 4.4623218361981438 186 145 103 0.6089578659520184 2 9407 4 3943 1 3919
1933 2.436724981112885 -1.3891949151059606 5.1519906036002494 119 76 51 0.55522559707443675 3 10619 4 4043
1934 1.7515982416120421 -3.0641521520612596 3.0180890313434148 114 83 59 0.5888660065946788 2 7939 3 10243 4 4273
1935 1.7767524621506123 -3.003785489128 3.0530714491060076 177 147 113 0.70648976343530967 2 8063 4 4274 1 3051
1936 2.7145197398773564 -2.0630829156180086 4.4445812554484263 113 77 56 0.46839652763585454 3 11803 4 4656
1937 2.2151728330518643 -3.2573022342503215 3.3898053341348238 101 78 67 0.53405306552445775 3 11329 4 4706
1938 3.2737869049762236 -1.879861224734463 4.1935051336211746 142 118 102 0.78917046490172338 2 11343 4 5009 1 4353
1939 3.270458434471728 -1.9131486734178629 4.1192021370771155 160 147 134 0.43914891599598255 2 11347 4 5018 1 4321
1940 3.3055252803032471 -2.4658785952275464 3.9241588700354901 226 245 255 0.85394757820517631 3 12859 4 5113
1941 3.2719039771419389 -2.3814618788304145 3.7661222177792038 152 119 97 2.1636660435105828 3 12884 4 5118
1942 3.3380918643696855 -2.3859271505771056 3.7900622654789826 142 117 102 1.873914157436527 3 12901 4 5129
1943 3.3533185623335386 -2.4136328237867728 3.8320748652010455 212 235 240 0.7625166643711182 3 12892 4 5132
1944 3.4090051578588336 -2.3277578979047289 3.8276681669502999 189 218 217 0.20582701117577606 3 12912 4 5140
1945 0.96966340303503484 -1.3460210066896938 4.539036462503411 104 75 51 1.8596631835139037 2 7451 3 7963 4 2911 4 2912 2 7452 3 7962 4 2885
1946 0.68781788890916062 -1.4095157073040196 4.4298015495376015 119 85 59 2.351471538107913 2 7214 3 7492 2 7215 3 7491 4 2628
1947 0.49477216345979891 -1.4074591013506401 4.3312370298298006 115 83 51 2.4054776466892371 2 6916 3 7249 2 6917 3 7202 4 2368
1948 0.24773050296394877 -1.2866602562914675 4.2037257142728075 109 83 58 1.892195880203736 2 6566 3 6801 4 2097 2 6601 3 6800 4 2048
1949 0.10232896279421189 -1.2857940252982529 4.1439034127476697 122 91 61 1.7272775813024144 2 6334 3 6504 4 1939 4 1971 2 6335 3 6454 2 6297
1950 -0.034684512518077859 -1.31781857847145 4.0822498260301412 101 70 49 0.65302960631083462 2 6121 3 6170 2 6098 3 6169 4 1808 4 1812
1951 -0.077966912083566264 -1.343009835391582 4.0634530648284652 95 67 47 1.9154291675995108 2 6015 3 6141 4 1762 2 5985 3 6094
1952 -0.3077528428554927 -1.1374811275871415 3.9931010799920399 129 97 68 1.1173739611808347 2 5664 3 5594 4 1531 2 5663 3 5577
1953 -0.66534836562757782 -2.892240921939913 1.6832029570252407 63 55 48 1.4800941936295808 2 3044 3 3031 4 809 2 3033 3 3012 4 810 3 3032 1 1405 1 1406
1954 2.051143590856757 -2.5804389549771667 3.6730095252246127 139 124 106 0.54508526305465599 2 8937 3 10660 2 8881 3 10661 4 4292 1 3397
1955 -0.86474169935737355 -1.8809706755851594 2.7736697009042128 99 78 64 1.5319747202325753 2 3936 3 3635 2 3940 3 3644 4 778
1956 -1.0337788215810551 -1.0475838472780747 3.6373092080258251 115 91 67 0.70948479769964101 2 4243 3 3759 2 4242 3 3798 4 766
1957 2.10747750219182 -2.8205442959435767 3.4436077436185091 137 116 94 0.67435568197555429 2 8845 3 11019 2 8844 3 11028 4 4514
1958 2.199022446608291 -2.5984781994915389 3.723542885125581 117 99 81 0.99900258709020273 2 9244 3 11034 4 4454 2 9245 3 11041 4 4484 1 3507
1959 2.3933369257485948 -2.1541100431847791 4.3676368203865792 89 64 50 0.86226806824420088 2 9808 3 11042 4 4358 4 4361 2 9807 3 11048 1 3960
1960 2.5293752579429754 -1.8755845326968736 4.7139848395679929 85 51 25 0.8158069702152938 2 10192 3 11179 4 4352 4 4359 2 10187 3 11180 1 4175
1961 2.7220612185157096 -1.0309259226176857 5.1694321352433219 86 58 35 1.0905828528661026 2 10809 3 11330 2 10810 3 11334 4 4223 4 4238 1 4442
1962 -0.72415364011492001 -1.2522615022054095 3.8119491635294445 96 66 43 2.0643907238782915 2 4827 3 4593 4 1061 2 4855 3 4652
1963 -0.3294158410827342 -2.8634439102711537 2.0260240994080121 96 84 73 0.66157847643459666 2 4490 3 4673 2 4489 3 4678 4 1355
1964 2.3247297988654663 -2.6911197748034148 3.6628608983317763 101 73 52 0.62302531707632858 2 9483 3 11454 2 9471 3 11455 4 4639 1 3511
1965 3.3191691341463203 -2.1489116490291247 3.9260439442050554 168 219 247 0.85278445879426457 2 11316 3 12877 4 5104 2 11315 3 12876
1966 3.1149446400585741 -1.8484672072954225 4.2259815362512381 128 97 67 0.73846477283853817 2 11110 3 12669 4 4898 2 11114 3 12668
1967 2.0625147155219801 -2.3809694093197842 3.8836626348582586 122 92 67 1.4279361253719534 2 9095 3 10571 4 4202 4 4203 2 9072 3 10567 1 3513 1 3520
1968 1.9258064921379663 -2.182324468311073 4.0178749719776148 127 107 92 0.95095813962087128 2 8852 3 10089 4 3939 2 8840 3 10031
1969 0.63013400944327302 -1.3424810788467842 4.3912408450975571 107 76 51 1.1243654739952043 2 7176 3 7405 2 7153 4 2543
1970 1.7245679364046818 -2.2930083451318168 3.7814117087575267 82 44 18 1.0138970289667326 2 8355 3 9661 4 3830 2 8324 4 3831
1971 -1.0279959069591122 -1.0571110114522024 3.6563135005048855 104 72 52 2.4894845790770388 3 3758 4 801
1972 -0.55707165198414321 -3.1584623541740879 1.65516808475623 103 93 84 2.0924301145258908 2 3540 4 960
1973 -0.51348902308040678 -2.1676964690657252 3.079859718666131 90 66 51 1.7674360933456987 2 4742 4 1253
1974 -0.47233667946774721 -2.203296957940577 2.983991113565458 97 71 52 1.0189027184738579 3 4854 4 1292
1975 -0.39272652923963908 -1.4800239410627885 3.6030683511819932 0 0 0 0.37342334399493399 2 5241 3 5302
1976 -0.020109110348749626 -1.8546856451979623 3.4586423153797448 170 150 132 2.1804899393890063 2 5824 4 1863
1977 0.3470900803208159 -1.4507493363254895 4.3537687998650227 124 92 70 0.12600088121762443 3 6979 4 2213
1978 0.45545911770864406 -1.5848984850071544 4.3056590346121242 126 98 79 2.6003980262188646 3 7181 4 2344
1979 0.43114515800572867 -1.9070959571456632 3.6096363586040239 147 119 95 0.13342506637127394 3 7100 4 2364
1981 0.60028461784821874 -2.4325635529695764 3.4668603459076719 119 86 61 1.5997786883544205 3 7420 4 2714
1982 1.1330764298084217 -1.4313445109328364 4.7883368839987943 118 86 60 1.9847930128064948 2 7627 4 2975
1983 1.2536290858385521 -1.5766214204198294 4.975832691370961 0 0 0 0.019006964952222805 2 7782 3 8377
1989 0.96649378090050431 -3.3859359165862277 2.7626668472791422 160 165 173 1.9660125509978816 3 8217 4 3365
1991 1.0362647089584232 -3.4081684885463326 2.795676913364967 192 214 226 0.49987739782040741 3 8385 4 3447
1992 1.4939072380706904 -2.4767165213181346 3.9012197990413222 162 121 79 0.14054834295574897 3 9033 4 3616
1993 1.888950472322293 -3.0446436178570373 3.0130739788168741 109 73 50 2.5661836774053239 3 10646 4 4480
1994 3.0930466624712407 -2.0864797912804129 4.1975815371944343 129 97 78 2.6482955916644215 3 12646 4 4907
1995 3.2783796780007664 -2.616151540235554 4.2050413257987467 132 106 91 2.8022072512006 3 12769 4 5060
1997 -1.5091563525668656 -0.33012017674350147 3.4010930254578655 121 91 67 2.1291344397549712 2 2029 1 810
1998 -1.3388071716507111 -1.0668433870279794 3.0037066629252296 132 100 66 0.12147580563111363 3 1936 1 992
1999 -1.3567263980624762 -1.0166173641679637 3.0626483747938966 137 107 78 1.5963501445650874 2 2150 3 1992 1 993
2000 -1.2573472692032461 -1.1964337376893439 2.9103575056025575 142 115 85 1.2127772849652843 2 2365 3 2063 1 1058
2001 -1.3000207447930792 -1.0723550924333485 3.0188843198772144 129 97 65 1.1203478703188039 2 2328 3 2021 1 1060
2002 -1.1134793526478464 -1.4817376940706963 2.63315456370837 130 104 78 2.3816737718354557 2 2496 3 2193 1 1160
2003 -1.140180924995835 -1.4405907151750621 2.6974378844876021 134 110 84 0.98355016879699197 2 2410 3 2194 1 1162
2004 -1.2649444310638256 -1.0718732981283354 3.0341875851997413 156 126 93 1.6290258708481566 2 2418 3 2142 1 1169
2005 -1.2919975203373724 -0.98631926494778877 3.1392252976435175 156 134 107 0.33405566490356059 2 2555 1 1171
2006 -1.3350568393127837 -0.87334874312094479 3.2454054134855284 129 107 84 2.1983575438728367 2 2423 3 2287 1 1174
2007 -1.350661053000294 -0.82375907367597634 3.2842320582332603 94 80 64 0.86150788462868544 2 2425 3 2278 1 1175
2008 -0.64047080911709631 -2.0044303168158 1.5401368756517628 142 154 121 1.6088076981192105 2 2576 1 1213
2009 -1.1582137795382261 -1.2613545140759759 2.8869168014208517 136 104 71 0.4877728829197327 2 2640 1 1276
2010 -1.2360044035632602 -1.0591036687765727 3.1011063165032455 158 131 101 0.20365397750475039 2 2730 1 1281
2011 -1.2980065783536403 -0.88932021694149621 3.2455560405133079 134 112 87 2.0940965482413318 2 2589 3 2405 1 1286
2012 -1.3458781344065405 -0.72722150428037446 3.3943182549010569 141 111 83 0.9812781201235804 2 2647 3 2445 1 1291
2013 -1.0720862505475803 -1.761519837198388 2.7605947280762226 74 62 54 1.7817676677679362 2 2962 3 2813 1 1373
2014 -1.2930343400595554 -0.77342203813153798 3.3726702823383778 129 102 74 1.7873935585900966 2 2994 3 2612 1 1386
2015 -1.0341032047448782 -1.7631705820954719 2.7769508170833372 78 58 42 0.58141211212057309 2 3226 3 2930 1 1476
2016 -1.1983278095942731 -1.3060673286317632 3.1918497413236215 114 86 60 1.7922163382059269 2 3247 3 2771 1 1484
