# 3D point list with one line of data per point:
#   POINT3D_ID, X, Y, Z, R, G, B, ERROR, TRACK[] as (IMAGE_ID, POINT2D_IDX)
# Number of points: 397, mean track length: 2.9146604215456673
2409 1.1409077091616053 1.0224170644823825 13.331449831394348 160 131 102 1.7450024108407753 18 10858 19 14318 20 13979
2410 1.144726153594775 1.0873938328892236 13.340389492636396 176 149 114 1.6824280103618914 18 10859 19 14319 20 13980
2411 1.1508146552300067 1.2123333059969035 13.358097802881744 97 108 55 1.4438227994362876 18 10862 19 14320
2412 1.094369462675153 -1.799145479546711 15.134120951652967 201 165 126 0.97216943498123909 19 14349 20 11414
2413 1.0840456957164013 -1.7086114890031068 15.040653200083099 162 127 94 1.2567776645153588 18 13074 19 14350 20 11472
2414 1.0938341383120627 -1.6795100633878435 14.983307703553429 113 77 50 0.41325112554314747 18 13076 19 14352
2415 1.0962592896634704 -1.5000872992500462 15.12840130797405 145 110 77 1.7186424753553127 18 13167 19 14356 20 11416
2416 1.1036147172153401 -1.4112327991662112 15.126885887176622 193 155 117 1.2450523774420099 18 13168 19 14359 20 11431
2417 1.0951194473292947 -1.1583003692589253 14.507904381570093 219 195 163 0.63224435887034325 18 12510 19 14364
2418 1.0997811765809782 -1.0912655716300788 14.516358483782797 190 149 103 1.047439995822981 18 12511 19 14366 20 12139
2419 1.1085902905382707 -1.011003490848817 14.54247520024712 184 146 105 0.87455987604590713 18 12617 19 14367 20 12140
2420 1.110283143446243 -0.94544023657812193 14.5236727937193 200 167 129 1.4037345178601495 18 12619 19 14368 20 12202 18 12443
2421 1.1089000954873141 -0.93460883075447576 14.54079054283477 188 154 116 1.1561081452941842 18 12517 19 14369 20 12142
2422 1.1167510697987757 -0.86630957200230196 14.513597625191716 160 121 87 0.89364357253102389 18 12519 19 14371 20 12274
2423 1.1061071815468126 -0.8018240273906676 14.683292711417232 199 160 118 1.530212452455564 18 12621 19 14373 20 11977
2424 1.1199941050834177 -0.7347158074592518 14.556324324674186 163 125 87 1.6205469330793283 18 12521 19 14374 20 12143
2425 1.1218581147937488 -0.66612774170101874 14.585092781180947 132 94 64 1.1071283180502738 18 12522 19 14375 20 12116
2426 1.1153019847588332 -0.38439676422198876 14.116432531747728 241 220 191 1.001610029036011 18 12052 19 14380 20 12712
2427 1.1226237032821607 -0.32325822427216694 14.008124895604361 187 157 123 1.9056219613371059 18 11883 19 14383 20 12820
2428 1.1395825001863085 -0.23893769149941416 14.021842156250662 199 166 131 2.1733929488262054 18 12055 19 14384 20 12985
2429 1.1415089454481606 -0.17834129573742757 14.066752187934139 170 130 97 1.7320966169356604 18 12112 19 14385 20 12824 18 11950
2430 1.1361981409804844 -0.091685570174373898 14.045034913934826 187 149 108 0.88371271875167545 18 11887 19 14386 20 12826
2431 1.1426451218480693 -0.027350087950838039 14.032772601408171 208 170 128 1.1741568020066901 18 11888 19 14388 20 12931 20 12932
2432 1.1410840918125169 0.03129943789474058 14.031065801737499 170 134 102 0.85274262852660609 18 11867 19 14389 20 12933
2433 1.1597028566649723 0.18136099578461293 14.111838671073926 106 76 55 1.3913124493649462 18 12066 19 14391 20 12832
2434 1.1213642246253392 0.30655921716356066 13.469405782235297 231 205 172 1.4516775666858734 18 11302 19 14393 20 13554 18 11132
2435 1.1261701281664322 0.36621094171404212 13.460498330742935 207 172 132 1.1602200207553104 18 11243 19 14394 20 13656
2436 1.1342452059052714 0.46427636231192365 13.510772328416536 160 123 90 0.24763638183234354 18 11303 20 13495
2437 1.1327467567902785 0.62372314881023794 13.469144033722475 190 151 110 0.50962913026804235 18 11061 19 14400 20 13664
2438 1.1335237366053832 0.61014713313429236 13.483750063919979 183 144 104 1.9326150230688921 18 11139 19 14401 20 13560
2439 1.1406047068663079 0.66820560539533036 13.465944845058523 185 145 104 1.8924029365559945 18 11140 19 14402 20 13721
2440 1.1339354174654845 0.75795412168210241 13.599906431143626 161 116 78 2.1032908316813095 18 11253 19 14405 20 13463
2441 1.1261608927984126 0.82742128383331781 13.627417383556498 194 152 107 2.2554469309742897 18 11254 19 14406 20 13428 19 14239
2442 1.1470593468558168 0.88504353391392154 13.538685000069551 220 191 158 1.2856308399911673 18 11146 19 14409 20 13498
2444 1.1499023826744739 1.0218699725197815 13.330351177946739 186 160 127 1.7974913649885271 18 10955 19 14414 20 14011
2446 1.1502680896585971 1.3987129401485388 12.877455052835364 180 147 120 1.2683770958130061 18 10254 19 14421 20 14795
2447 1.1300970282741878 1.4505146538172853 12.787957441395744 111 86 67 1.3315355262559494 18 10066 19 14422 20 14893
2448 1.1098833014487433 -1.0156618146679171 14.513855656503955 177 136 94 1.368237462021799 18 12514 19 14441 20 12201
2449 1.1164567856809862 -0.94018027952085836 14.514322788247172 203 166 121 2.296045549559786 18 12516 19 14443 20 12273
2450 1.1072219755067927 -0.63104153009157415 14.694416848146252 123 84 56 0.92651978336604013 18 12624 20 12059
2451 1.1382262039158644 -0.25115627955636993 14.043537378360389 196 161 124 1.6852243010802412 18 12054 19 14450 20 12821
2452 1.1423399181435989 -0.037815176678045737 14.067396883052195 193 154 108 1.1868593562307044 18 11952 19 14453 20 12827 19 14387
2453 1.1549066036578757 -0.030993649360963139 14.048983649984461 202 161 115 1.5059218922294928 18 12059 19 14454 20 12987
2454 1.1597183083526268 0.12269940171899561 14.103450936832111 184 147 112 1.326672852914814 18 12065 19 14456 20 12831
2455 1.1295396146650356 0.45494081120367436 13.457098137394617 228 201 166 0.052779088205343702 18 11135 20 13659
2457 1.1600875968718212 1.1360230127122757 13.300027833352191 182 166 122 1.2329754053098656 18 10861 19 14463
2458 1.150598566533314 1.5145752705069253 12.604088181263824 198 202 206 1.0517368171069448 18 9872 19 14467 20 15270
2459 1.0356159443466011 -1.7439232236943536 15.177725543792926 190 155 122 1.8572416806671024 18 13072 20 11278 19 14094
2460 1.1431131479574317 -0.11089510282817962 14.059338805809126 182 137 102 0.98320440891979755 18 11951 19 14478 20 12825 19 14452
2461 1.1421235014535949 0.6695461251425594 13.512946341468288 193 152 104 1.1762741106709722 18 11141 19 14480 20 13496
2462 1.1640094470353923 0.042481133564767536 14.071785195086978 190 151 109 0.99674928056877199 18 12061 19 14483 20 12934
2463 1.1746570806096293 -0.42373351056137715 14.0541217893224 198 174 144 2.5452947359764657 18 12164 19 14490 20 13012
2464 1.1743615337537916 -0.041510418303908135 14.047421939461509 174 142 105 0.20665310786670321 18 12116 19 14493 20 13006
2465 1.1754254132344348 -0.80059823951364417 14.644169003170871 170 135 102 0.79454764316482318 18 12801 19 14500 20 12277
2466 1.1790046975497197 -0.63937131896767641 14.682541293451488 166 134 106 0.65114154890831633 18 12805 20 12208
2467 1.1972903472013341 0.76052418129436861 13.607216530059338 174 129 89 1.656327543745634 18 11423 19 14504 20 13565 19 14554
2468 1.148077869631295 -1.6937102625489 15.165075262322505 192 157 120 2.3173330873986817 18 13337 19 14523 20 11572
2469 1.1701076459684396 -1.0302394841762372 14.628021176852526 207 180 150 1.3726561663625692 18 12906 19 14530 20 12271
2470 1.1748433720277149 -0.877669935938306 14.639069538249611 169 137 106 2.0525864461576351 18 12798 19 14532 20 12276
2471 1.183860043445474 -0.81701885108991812 14.589718372484571 101 65 42 0.20074371938336377 18 12799 19 14534 20 12314
2472 1.1863994270418905 -0.41126539236864512 14.137287319691334 240 225 203 0.61741918463382661 18 12341 20 12819
2473 1.1784389899487226 -0.40654829820724592 14.119024399750842 212 187 151 1.1135256671646629 18 12230 19 14539 20 12818
2474 1.2185292983154306 -0.26544327879196605 14.022872692964278 118 82 57 0.49380601572367144 18 12234 20 13088
2475 1.2017860701689527 -0.10537781249833911 14.162841973307355 207 168 122 1.1657191352202882 18 12347 19 14542 20 12929
2476 1.1770403158747682 0.37750063495351094 13.548159058332681 188 158 122 0.70737152661859637 18 11415 19 14549 20 13657
2477 1.1932316509453105 0.59872375662635013 13.583465731158929 193 156 115 1.3107677368272197 18 11517 19 14551 20 13662
2478 1.2100506072808483 0.89583274200742724 13.633771141089376 225 198 167 1.2621226415482807 18 11524 19 14555 20 13672
2479 1.2062865204487614 1.0042812960570384 13.353892816953929 159 138 115 0.0062658537337941592 18 11150 19 14559
2480 1.2126471460143007 1.080951360455668 13.388219939089891 175 147 113 0.30687588488755679 18 11262 19 14560
2481 1.2085343785945328 1.1060736142164493 13.354094633288202 112 89 68 0.50914662154695156 18 11065 19 14561 20 14043
2482 1.2145424776562199 1.1392999593353095 13.369969038421377 201 173 137 0.93291254786680788 18 11156 19 14562
2483 1.2228483301529498 1.1589514761590307 13.366071218816728 190 164 128 2.0171732858788789 18 11263 19 14563 20 14174
2484 1.1492627071157411 -1.7838957504490409 15.001348620603959 210 175 136 1.7354244186807761 18 13257 19 14598 20 11653
2485 1.1598895931771431 -1.714991035288028 15.058911353799274 197 159 115 1.8587029867509333 18 13336 19 14600 20 11637
2486 1.1711255844894515 -1.6348003507722302 15.073362462507539 152 114 78 1.1891863470561068 18 13432 19 14601 20 11654
2487 1.13071898130145 -1.6054356340108242 15.209354678998583 139 102 68 1.2689766131700655 18 13338 20 11427
2488 1.1883092938630693 -1.4984825847072014 15.154348658169836 163 127 95 0.38264479898445902 19 14604 20 11638
2489 1.1563635029855814 -1.1780735716589636 14.569972910373153 223 193 154 1.3618045242640839 18 12737 19 14610 20 12270
2492 1.1426867260726987 -1.0030054782587046 14.614541176577143 190 160 127 0.47610457927912475 18 12722 20 12141
2493 1.1781291089685735 -0.95476818875495528 14.640830661526863 196 159 116 1.82624087782286 18 12907 19 14616 20 12272
2494 1.182315703866216 -0.93841221222083648 14.557937740672543 165 127 89 1.7348985514195241 18 12796 19 14617
2495 1.1849074657927432 -0.79931851223726935 14.671359020628596 146 108 74 1.6023168013702005 18 12912 19 14620 20 12205
2496 1.1908301332703164 -0.72850366079446949 14.664826533817752 157 121 86 0.86494022385241331 18 12914 19 14622 20 12278
2497 1.1928305077749908 -0.68377997181435413 14.507966398803829 165 130 100 0.27617911602260337 19 14623 20 12422
2498 1.1845144789415554 -0.32318903415467681 14.106260127880692 191 161 123 1.9810562830068601 18 12165 19 14632 20 12922
2499 1.2006231951026549 -0.25260943825183452 14.103621374269942 181 145 108 1.817766724699138 18 12345 19 14634 20 13005
2500 1.2042843052031169 -0.18925111000743072 14.065752823128076 169 133 103 2.6450129754910265 18 12235 19 14635 20 12986 20 13090
2501 1.214205975094488 -0.11734301632683546 14.042245423383887 124 87 57 1.5598276398816002 18 12238 19 14636 20 13092
2502 1.2008724169475855 -0.11099479639602511 14.140953812644591 213 174 128 1.4535318753297544 18 12239 19 14637 20 12927
2503 1.201097002456079 -0.036942145800432306 14.142208716076954 177 133 90 1.102686647526754 18 12166 19 14638 20 12930
2504 1.2055272878315251 0.0367462237987446 14.157829958867758 164 127 92 0.65384734828086999 18 12168 19 14639 20 12935
2505 1.209213169819485 0.10189241271354349 14.213795851475041 177 141 105 1.8423459583439301 18 12244 19 14640 20 12767
2506 1.2139139273210979 0.15067593507492427 14.113249000132447 89 58 37 0.046798135838467099 18 12143 19 14642 20 13013
2507 1.1900799682968033 0.53051012141208342 13.568558465635808 197 159 116 0.42196176979640015 18 11515 20 13720
2508 1.199713920201414 0.75461827616223409 13.606670123868192 159 115 77 1.8682428883272422 18 11424 19 14654 20 13564
2509 1.2011607329634506 0.82451690830743929 13.636732738378532 169 136 105 1.9035465995786847 18 11425 19 14655 20 13497 20 13566
2510 1.2323549940313403 0.89181522847598049 13.531890351799147 222 196 166 1.4379714419449174 18 11566 19 14656 20 13976
2511 1.2046115818806458 0.94832232018652107 13.326703049276103 223 200 170 1.8960698031934446 18 11063 19 14658 20 14074
2512 1.2198097877349001 1.0126840874725502 13.290543277177061 142 116 90 1.3956795088722436 18 11151 19 14659 20 14334
2513 1.2198797078307513 1.0797749521456859 13.32887696503051 180 154 120 1.6123253451549509 18 11153 19 14660 20 14279
2514 1.2235618605073921 1.1315621720220328 13.361066060874021 189 160 126 2.349845500515833 18 11157 19 14662 20 14075 18 11307
2515 1.2251866975151173 1.2693379063388908 13.342614653159881 143 134 101 0.90054286244186965 18 11066 19 14666 20 14177
2516 1.1667776770651019 -1.1692544153379618 14.615304903512989 228 204 174 1.690691801899501 18 12903 19 14692 20 12198
2517 1.2244657647211197 -0.27086064845067204 14.034099823778785 183 142 107 0.043654532721617192 18 12344 20 13087
2518 1.2312279708703679 -0.03100155949786423 14.053402176935096 187 145 98 1.8174450824537836 18 12240 19 14698 20 13094 19 14751
2519 1.2233924141858339 0.047857588241977313 14.104190379002455 188 152 109 1.9086755568863165 18 12242 19 14699 20 13024
2520 1.196927545212833 0.17880052435057389 14.065641785781912 176 142 110 2.0435220920229358 18 12067 19 14702 20 13008
2521 1.2012628413524793 0.68547465958288967 13.596217265178527 193 149 104 1.9789677916099757 18 11519 20 13665 19 14653
2522 1.208503398230161 0.7480782958409824 13.606796684049412 156 115 80 1.6218429991605203 18 11520 19 14707 20 13667
2523 1.1790143400234347 -1.0924160826252776 14.599806764086953 191 156 118 1.7171240206366605 18 12905 19 14717 20 12304
2524 1.2227847475733933 -1.3185653651909461 15.204163501546288 154 116 84 0.68509572634796922 18 13493 19 14725 20 11659
2525 1.2318783048324009 -1.3151484502130708 15.237141171876864 135 96 69 0.13853567079229276 18 13583 19 14726 20 11660
2526 1.185703194501756 1.7361152348754672 11.79416550133881 191 168 135 0.45549366581582307 18 8918 19 14729 20 16908
2527 1.1312999388984935 1.8720086821511261 11.427184453490796 205 178 144 0.91643465748328268 18 8061 20 17455
2528 1.2581526526201419 -0.58708510856037732 14.643896029985015 103 68 44 0.54036129620711526 18 13026 19 14732 20 12494
2529 1.3150456657631258 -0.18727818330086329 14.009074237510523 168 131 99 1.7951719724642725 18 12535 20 13404 19 15198
2530 1.2467502922597278 0.36977500179011991 13.511497390906039 202 173 134 1.5300980821159624 18 11683 19 14734 20 14024
2531 1.2532696223054456 0.51291382432113408 13.547149107506572 176 140 102 1.635276676483566 18 11687 19 14735 20 14008
2532 1.2556217425445333 -1.2953838480373399 15.137462073257518 206 170 131 0.58128792394821893 18 13584 19 14741
2533 1.2339839034030633 -1.1016418545728439 14.59945175583821 204 173 136 0.65525788161241738 18 13087 19 14742 20 12411
2534 1.24056558246913 -0.96500747087572658 14.644357280952788 184 151 116 1.7345863456791948 18 13089 19 14744 20 12346
2535 1.255875417357194 -0.41942282485640048 14.125228219437592 228 209 180 0.37065928732761755 18 12527 20 13041
2536 1.2827416193051864 0.1104127396603596 14.167143655536108 201 166 131 1.5359761923248645 18 12543 19 14752 20 13179
2537 1.2544672291422574 0.17826799710526772 14.081409132034997 84 57 40 2.4842625364792874 18 12246 19 14753 20 13183
2538 1.2669485797807758 0.74930806918390791 13.596279332028795 152 113 76 1.5375281582912321 18 11695 19 14757 20 13873 20 13973 18 11694
2539 1.204763149531916 -1.7555029558356818 15.140007021507811 201 161 116 1.1934608803377582 18 13515 20 11706
2540 1.2268502632644191 -1.695294167526848 15.168536229141164 197 163 126 1.9721032106475143 18 13572 19 14782 20 11708
2541 1.2354172363750369 -1.6230881220564328 15.017127004436221 192 155 114 1.6440545340957939 18 13491 19 14783 20 11901
2542 1.2461142801569043 -1.0988020949343911 14.588387466960933 206 174 135 1.3814291851489944 18 13172 19 14791 20 12514
2543 1.2366789021952138 -1.017431748077986 14.619548592590876 182 150 115 1.4048025670552811 18 13022 19 14792 20 12345
2544 1.2449077029853082 -0.9489384282086194 14.644188736087422 192 161 123 1.1400068743706808 18 13090 19 14795 20 12347
2545 1.2510672342636155 -0.87888791258508914 14.642182548545129 184 150 116 1.7044209815704399 18 13091 19 14796 20 12418
2546 1.2508327084578967 -0.87775085960984467 14.632271580606826 171 137 103 1.0916196511301324 18 13093 19 14797 20 12416
2547 1.2548146954939516 -0.81171184862080437 14.64649001469289 178 145 114 0.998951409307825 18 13095 19 14798 20 12419
2548 1.2579476618888712 -0.72911380796097669 14.567775587850376 151 113 76 1.2909115368315192 18 13014 19 14800
2549 1.2576999567592875 -0.63478342435680035 14.691682086031646 159 120 87 1.8609557375658023 18 13098 20 12350
2550 1.2695457356992927 -0.57696215764281344 14.620399334870868 135 98 69 2.2082535672916421 18 13027 19 14803
2551 1.184086971491477 -0.50751439711418578 14.340618325581916 224 201 169 1.3614900899884805 18 12447 20 12546
2552 1.2748357174435108 -0.18629972760033586 14.125278288290295 121 85 62 2.2044295390388231 18 12632 19 14812 20 13231
2553 1.2791481534788425 -0.11562695565952799 14.135192871958212 168 132 94 1.5499892061969736 18 12635 19 14813 20 13232
2554 1.2799098832702271 -0.10347195516843338 14.139427406211208 173 138 102 1.6859135911301919 18 12636 19 14814 20 13233
2555 1.2794873940113283 -0.038230631132299797 14.132501594736617 208 167 121 1.4281104161825464 18 12537 19 14815 20 13234
2556 1.2782063104119212 0.032896003223460542 14.187293106768951 159 119 82 0.40556558712651897 18 12540 19 14816 20 13042
2557 1.2835976115066499 0.037329544772088018 14.163999247893148 180 141 101 1.0517215560378814 18 12539 19 14817 20 13177 18 12541
2558 1.261794333182404 0.17584517792399226 14.130356974224421 188 155 120 1.7067145805738988 18 12402 19 14821 20 13043
2560 1.251428733561325 0.29623481425467801 13.57346432133455 209 176 137 1.558396715109468 18 11842 19 14824 20 13862
2561 1.2608063021857834 0.35865969568517497 13.575280618667406 184 145 103 0.88750709756718182 18 11857 19 14825 20 13963
2562 1.256935170196307 0.60655690846067445 13.568125503886062 176 138 96 1.8859269963238481 18 11617 19 14831 20 13868
2563 1.2640041954792036 0.67437125941456855 13.568432625762993 190 154 116 1.3293510112726883 18 11691 19 14832 20 13870 20 14010 18 11618
2564 1.2730959441311478 0.74487973286424303 13.610541366121348 173 136 102 0.92141749185575783 18 11793 19 14833 20 13872
2565 1.2770039971921081 0.81402219969763856 13.621557784565022 164 124 86 0.97834288439386985 18 11796 19 14835 20 13875
2566 1.2729864397677708 0.81663512627746626 13.603880557819833 112 75 47 2.0160084169439769 18 11696 19 14837 20 13874
2567 1.2785976100323686 1.0705292673671718 13.380334666758113 184 159 125 0.051357771111218947 18 11431 19 14842
2568 1.2005883072533172 -1.8302370814723699 15.12623559220258 224 197 166 0.54083794585388267 18 13514 20 11705
2571 1.2534530968711546 -1.7357524883190307 15.195458389408286 200 164 125 0.70454446584742358 19 14874 20 11830
2572 1.2479436998038274 -1.429107408301568 15.192462741511896 135 98 66 2.636841014937493 18 13579 19 14879 20 11792
2573 1.2492367788733489 -1.3599438525465568 15.165079771794799 166 127 89 2.3659906222678537 18 13519 19 14881 20 11831
2574 1.2541843116343112 -1.0295283412813192 14.644599961491506 192 162 127 0.88659387195941741 18 13224 19 14887 20 12414
2575 1.2527355191443501 -0.8762168305569199 14.654173788125883 169 134 100 1.3626579408524353 18 13092 19 14891 20 12348
2576 1.2631854984499573 -0.80344601115762926 14.662535378896399 183 148 118 1.0688836057968536 18 13177 19 14893 20 12420
2577 1.2613832842187815 -0.72696613384109598 14.676170882398122 165 123 80 1.3013602209375283 18 13096 19 14895 20 12349
2578 1.2712230483897164 -0.66467618075993062 14.5763515247837 139 100 72 0.4649040626276193 18 13025 19 14897
2579 1.2715976344651889 -0.61003550080486912 14.648606101158162 107 70 45 1.5491081491151497 18 13099 19 14898 20 12493
2580 1.2584593804856283 -0.48658062238106925 14.128836067478689 224 198 166 0.20069175302023276 18 12626 20 13040
2581 1.2551481598201084 -0.50321040986955812 14.087357038521091 225 201 170 1.5298960665977308 18 12526 19 14901 20 13166 19 14972
2582 1.2343208852035608 -0.31802080911326269 14.026370281195611 200 169 129 1.7569262254986535 18 12343 19 14907 20 13086
2583 1.2266294494467074 -0.32977209783557715 14.025075032509447 189 156 116 1.3424052453052682 18 12342 20 13085 19 14748
2584 1.2784222041761009 -0.10569129642046551 14.22321342823933 173 135 97 1.0663369820855824 18 12695 19 14912
2585 1.2899863373913805 0.038189103008971818 14.176478681497416 169 128 91 0.95822318705441278 18 12640 19 14916 20 13178
2586 1.2889014208305942 0.034047842636183094 14.176207316465247 182 144 104 0.98655513026724861 18 12639 19 14917 20 13095 20 13176
2587 1.2870473670405325 0.1004266353924929 14.141226289335778 179 143 105 0.93896540300629383 18 12452 19 14918 20 13235
2588 1.2944659145142934 0.11880096241068085 14.189176019867604 182 147 112 1.663110604537396 18 12641 19 14919 20 13181
2589 1.2753852524626026 0.17183356635993424 13.95279483282266 187 156 122 0.59700351025036791 18 12247 19 14921
2591 1.2674147851814135 0.51239801415089103 13.563495632020219 201 169 133 1.9673543663650319 18 11789 19 14927 20 14009
2592 1.2597773411737636 0.55170597110065878 13.539750117925939 208 177 141 2.1586395547696497 18 11616 19 14928 20 13966
2593 1.2486057109718161 0.65584067194913431 13.566353168246136 193 161 123 0.9950318739359334 18 11590 20 13869
2594 1.2789739839657195 0.75589875623766989 13.600779274626881 176 134 94 0.87986390162020711 18 11794 19 14933 20 13972
2595 1.2863149043981243 0.82005577323283996 13.607794015125775 152 113 79 1.8506553521083302 18 11795 19 14934 20 13974 19 14990
2596 1.2846855175477878 0.89616150538155248 13.640085562893951 223 199 169 1.3742659483030406 18 11797 19 14936 20 13877 20 13878
2597 1.2792571565536526 0.89859101591842072 13.636805332434511 222 196 164 2.1448902242632295 18 11698 19 14937 20 13782
2598 1.2827970339424779 1.0004293624287668 13.375196827062037 128 99 75 0.30691129212193702 18 11527 19 14940
2599 1.2672436728142549 1.3834420873136424 12.756341758085975 174 155 130 1.4824290869764847 18 10696 19 14950 20 15524
2600 1.2157979695699526 -1.604387397533948 15.199390899992187 192 153 109 1.9082916595534405 18 13574 20 11655
2601 1.2733149758835636 -1.5256609917511532 15.145858352221206 153 116 82 0.22001461600021441 18 13750 19 14964 20 11879
2602 1.309786069953327 -1.1839789121126632 14.593945505160946 221 193 157 0.93857538858892098 18 13346 20 12571
2603 1.2929700578354459 -0.18594045835241357 14.033442951188135 181 148 115 2.3032798563898385 18 12633 19 14975 20 13325
2604 1.2879685903728579 -0.050953163403423769 14.15375275476484 193 158 119 1.2028677942016623 18 12637 19 14977 20 13174
2605 1.2489164359512823 0.18675075856399029 14.102921873500156 71 44 27 1.2961446699293397 18 12354 20 13097
2606 1.3281233246258035 0.22897189509900273 13.506345100811419 180 153 121 0.73441452527202211 18 12068 20 14315
2607 1.2697129201828137 0.60874640224178522 13.566718303621887 193 155 111 1.7881647318156741 18 11689 19 14987 20 13969
2608 1.2763337252305218 0.69068869980936365 13.604299814514208 212 176 130 2.2736419942087158 18 11792 19 14989 20 13871
2609 1.2433262017918523 -1.1876487224341961 14.585814525472397 223 197 162 1.4677639669011511 18 13086 19 14999 20 12409
2610 1.2570706947001984 -1.028441841431605 14.627170088583494 172 140 104 1.3171763622327159 18 13173 19 15000 20 12413
2611 1.2903405002028827 -0.58822394339974027 14.625113625035342 161 123 93 0.55666594377844703 18 13181 19 15002 20 12526
2612 1.3039063311065087 -0.86809750423174958 14.612705887213398 116 81 55 0.51317766088848349 18 13252 19 15007 20 12544 19 15016
2613 1.3005715100367752 -1.6917923006010942 15.157165565048416 176 140 103 1.5927508613510224 18 13827 19 15013 20 11959
2614 1.3343577025191831 -1.3139038287749143 15.200051399797907 94 61 41 1.1527271900321197 18 13843 19 15015 20 12088 18 13988
2615 1.3127446224623043 -1.0322944712936575 14.635141763408511 193 161 126 1.0072074778942353 18 13349 19 15026 20 12541
2616 1.3169240281489083 -0.9628153395650052 14.646043330130528 182 145 106 0.98554867749671005 18 13351 19 15027 20 12542
2617 1.342556367550495 -0.42707295579835719 14.081100969994131 228 208 179 0.30189496216219791 18 12811 20 13399
2619 1.3212346197919207 0.37177192745840987 13.51615683246261 193 163 127 1.5188395834719104 18 11963 19 15036 20 14318
2620 1.3293149580355512 0.43704997808724649 13.541805119776182 219 188 151 2.2422607411637769 18 12075 19 15037 20 14319
2621 1.3380717699643174 0.66699816046279981 13.54904521727674 182 142 100 1.4405483873293849 18 11971 19 15039 20 14321
2622 1.340988400823842 0.74852688931787859 13.577939562746248 189 149 105 1.6652040221090871 18 11974 19 15042 20 14269
2623 1.3373472000695217 1.0800571171696507 13.371998624072702 106 79 53 0.38053799966976359 18 11592 19 15045 20 14637
2624 1.2958180862436748 -1.8670516176971579 15.147272648717289 225 198 168 2.0936615050577845 18 13822 19 15060 20 11899
2625 1.3090338244815103 -1.7877365539321328 15.066899676562873 194 161 122 1.0208200034243395 18 13825 19 15062
2626 1.3109397578590039 -1.723799952236581 15.086142017115733 190 156 119 1.1014168044995867 18 13826 19 15064 20 12101
2627 1.2961507784243413 -1.6144560504450454 15.200961638932769 190 155 119 1.4771182882866472 18 13830 20 11878
2628 1.3143380418453487 -1.3504491970295383 15.160295845511353 205 170 130 2.4172421641108865 18 13753 19 15076 20 11965
2629 1.349592715069976 -1.3199191942264248 15.251516504906872 120 87 65 0.33555196197154263 18 13993 19 15077 20 12053
2630 1.3090858910485821 -1.1822329179413975 14.590581235721054 216 188 152 0.18156712159237487 18 13347 19 15079 20 12570
2631 1.3191659778082885 -1.0194625307286704 14.624114426502677 193 159 123 1.5253165143406535 18 13350 19 15082 20 12575
2632 1.3272323901459468 -0.95822617520136377 14.633655651425203 165 127 89 1.123986955218415 18 13435 19 15084 20 12576 20 12635 19 15083
2633 1.3250460874833532 -0.88315246252208068 14.65171743633783 169 137 105 1.0014379140925349 18 13354 19 15086 20 12543
2634 1.3323415191399317 -0.81089475146579137 14.641090836263752 198 161 124 1.0450110635882346 18 13355 19 15087 20 12545 20 12710
2635 1.3356476273494144 -0.73692655312889876 14.661842865717007 172 133 93 0.78955435851117794 18 13356 19 15088 20 12577
2636 1.3407134583487768 -0.66662115556843227 14.659981741493135 158 113 77 0.8227913592062418 18 13357 19 15089
2637 1.3067709668022871 -0.33654556791503631 13.996122711968756 213 185 147 1.2844872913933971 18 12629 19 15097 20 13401
2639 1.3503734104086933 -0.19036316974861603 14.113666132302786 192 162 128 2.6924836944967505 18 12922 19 15102 20 13457
2640 1.3466547883391073 -0.12563271323823147 14.138296547285432 166 127 88 1.2101424375546763 18 12816 19 15103 20 13327
2641 1.3558781569658214 -0.11074981777232246 14.165530850870171 162 128 95 1.7458905640776452 18 12994 19 15104 20 13328
2642 1.3594870263199383 -0.039576135361561661 14.134252232752511 209 169 123 1.9322665330913573 18 12929 19 15105 20 13458
2643 1.3625425049903956 0.03727882774597837 14.164758127349986 177 133 93 1.7088481508827591 18 12933 19 15108 20 13413
2644 1.3639617243274313 0.10302053919646849 14.169865306338361 196 158 120 1.6113412450969693 18 12934 19 15110 20 13333 20 13417 19 15207
2645 1.3607237577847049 0.10266884770809376 14.159569613336656 194 157 121 1.3215186206421277 18 12822 19 15111 20 13334 20 13416 19 15206 18 12748
2646 1.3154392367270575 0.28755435814191527 13.53400285408796 212 181 142 0.80369119370090014 18 11962 19 15115 20 14066 20 14156
2648 1.3315081657667325 0.34902102603520962 13.575902965289465 171 136 101 1.2226836636996352 18 12131 19 15117 20 14158
2649 1.3304627152162671 0.42543509520363926 13.555250038001525 211 180 142 1.6752906678655815 18 12074 19 15118 20 14261 19 15216
2650 1.3234890643742296 0.44124374249156872 13.569653603544806 200 167 128 1.2610346870758296 18 11964 19 15119 20 14068
2651 1.3313244196920353 0.5142191920709277 13.562398332146831 187 151 116 1.8713640805307297 18 11966 19 15120 20 14161 19 15219
2652 1.3384320357616439 0.55842746579504632 13.596588321071598 200 173 141 2.1734378455370775 18 12121 19 15121 20 14069
2653 1.3344687438467633 0.64003989823405683 13.551104847954779 150 116 82 0.45486121109572375 18 11893 19 15125 20 14266
2654 1.3327276040344871 0.67752854455592604 13.579359538574833 185 147 109 1.1625618181970261 18 11894 19 15126 20 14070
2655 1.3528217689905764 0.81683684505695642 13.596566660671355 136 97 66 1.6020889790660757 18 12082 19 15130 20 14271 20 14273
2656 1.3460844032661545 0.81221328287237105 13.593514694795298 96 60 37 1.9243612655904077 18 11975 19 15131 20 14167
2657 1.3484253181474055 0.88224442087021826 13.622340382875992 221 194 161 1.8222198251189914 18 11976 19 15132 20 14073
2658 1.3422688737454007 1.0666196876543208 13.430327691481077 142 112 80 0.90299898114078803 18 11704 19 15135 20 14382
2659 1.3405151556418484 1.0695306210390174 13.36165608775967 100 74 51 0.79486156206696668 18 11591 19 15136 20 14636 20 14652
2660 1.3417142982968464 1.1253720604776434 13.42068169777929 199 170 131 1.7770215997220618 18 11622 19 15137 20 14383
2661 1.2569717081658955 1.8046860930094728 11.556345355661579 183 172 148 0.64367217654648512 18 8871 19 15144 20 17715
2662 1.3229382886275096 -1.8237742642331021 15.191957338214099 195 162 122 1.635096090095185 19 15164 20 11957
2663 1.3238924054824048 -1.7429625721765494 15.143026808552438 193 157 117 1.5613469518109691 19 15166 20 12087
2664 1.3117550511864051 -1.6463234727240432 15.16697494413426 185 150 114 2.7088131023389876 18 13831 19 15168 20 11900
2665 1.341415614716829 -1.5986435271483386 15.270572247575865 201 169 131 1.1421046576084048 19 15169 20 11902
2666 1.3288670754266876 -1.4293490467931331 15.178752615079713 152 113 80 2.1149965496037972 18 13839 19 15172 20 12051
2667 1.3372402642365953 -1.3618196298630103 15.202242675239834 206 169 127 1.766650383244927 18 13934 19 15173 20 12052
2668 1.3153603079055538 -1.0343883317548654 14.617933959485596 194 162 126 1.1337149735049945 18 13283 19 15179 20 12540
2669 1.3352897330599005 -0.9430067450798072 14.616294936716875 176 139 99 1.6605784241020454 18 13436 19 15183 20 12708
2672 1.3448594907967955 -0.80896751214906204 14.618382177461006 196 155 115 1.0908282020225855 18 13437 19 15189 20 12739
2673 1.3414609022649178 -0.679430641539295 14.608436384088474 147 102 68 2.1225189053418192 18 13285 19 15191 20 12711
2674 1.3477566209535179 -0.61424587205949699 14.649077154888383 137 102 77 1.9925078753277858 18 13359 19 15193 20 12640
2675 1.3125914652993227 -0.32739284533013308 13.98287440185514 203 174 136 1.3470054218484204 18 12630 19 15196 20 13455
2677 1.3561036639127508 -0.12614403430826959 14.136812011707477 162 122 86 1.274256511321459 18 12925 19 15200 20 13405
2678 1.3547063859064326 -0.045448212161827151 14.148069870281326 203 165 125 1.2475788908522596 18 12818 19 15203 20 13330
2679 1.3691711616487245 -0.058909791173141511 14.146929054964247 212 173 129 0.072198985411122685 18 12928 20 13409
2680 1.3682333312439634 0.037293801156181972 14.152589518249227 171 129 91 2.1178956204007138 18 12931 19 15205 20 13414 20 13459
2681 1.3310112616025671 0.28825126216557939 13.532376355382617 203 173 137 1.7603265806519748 18 12117 19 15213 20 14317
2683 1.336065409850582 0.43192712766433333 13.579401686710566 205 172 133 1.1846702658412009 18 12119 19 15217 20 14160
2684 1.3340701606523149 0.5025818250837385 13.551661956474312 192 156 117 1.6015092493311818 18 11965 19 15218 20 14263
2685 1.3366303342227346 0.5476836581994019 13.538759618911769 200 172 138 2.2489311818122495 18 11967 19 15220 20 14262
2686 1.3596852572753595 0.88072559940104489 13.602475695511208 222 196 164 1.8244295605490979 18 12083 19 15227
2687 1.344579515028558 0.92240567265540607 13.394358114266277 220 200 173 1.0446275993480083 18 11800 19 15229 20 14603
2688 1.3408101472212846 0.9247378361080334 13.378187476085049 218 200 175 1.7933856412108009 18 11700 19 15230 20 14602
2689 1.3451899987926472 0.99888756900505016 13.391388136750683 150 124 95 1.2188415587546022 18 11702 19 15231 20 14605
2690 1.3430382505213228 0.99698244534222091 13.401121153629898 170 141 107 2.0244426891216705 18 11701 19 15232 20 14495
2691 1.3508928506835147 1.0643396399412124 13.402185692592703 84 60 39 1.5438348409672225 18 11705 19 15234 20 14606 18 11803
2692 1.3541694609088146 1.1225675442458531 13.392402051746666 200 172 133 1.3739983157959106 18 11706 19 15235 20 14638
2693 1.3335204257992888 1.3349159717518024 12.893406482558747 216 198 170 0.34055126201788177 19 15242 20 15503
2694 1.3356334526107116 -0.50109810902560081 14.062411664719328 229 205 174 2.027473208180957 18 12808 19 15265 20 13454
2696 1.351835492708978 -0.045330701667967724 14.107056996797215 114 89 68 0.31859006149907299 18 12728 19 15268 20 13410
2697 1.3717039408981015 0.10831757697380728 14.190998175074943 193 161 127 1.3979214700790024 18 12935 19 15269 20 13335
2698 1.3233491654041787 0.28466669923444088 13.54706231335415 210 183 152 1.5777986305592686 18 12071 19 15271 20 14157 19 15114
2699 1.341959910995304 0.51154588799461964 13.565493669111156 211 181 146 1.6477225887541513 18 12076 19 15272 20 14264
2700 1.3444722874628343 0.58383455729922062 13.590420623544743 196 166 132 1.9383249716290092 18 12078 19 15273 20 14163
2701 1.3402219992778166 0.92052242425956554 13.402634538053945 221 203 178 2.585976838172074 18 11699 19 15276 20 14381
2702 1.3067907194410098 1.6317109072254969 12.092508440691736 124 100 80 1.855479847682294 18 9866 19 15278 20 16900
2703 1.37299369369227 -1.3133447127433437 15.197339959504488 85 54 36 0.28371479601836141 18 13999 19 15283 20 12110
2704 1.376881782562617 0.14510324908020539 14.14743051724804 104 70 49 0.17961800603097036 18 12823 19 15287 20 13460
2705 1.3769794668149795 0.85244265315874146 13.642321121839514 90 57 35 0.51953339020002032 18 12134 19 15290 20 14274 20 14275 18 12135
2706 1.3748959866113148 0.85318363225746341 13.613511019753345 65 40 25 0.11523628888845049 18 12132 19 15291 20 14323
2707 1.3714991822568077 -1.7945071273343587 15.150695758381245 207 173 132 0.47899523505413866 18 14088 19 15302
2708 1.3804391286110516 -1.6917710099772745 15.15917060444351 178 138 99 1.9952976886226947 18 14091 20 12135
2709 1.4101358550570287 -0.63527902751730148 14.664301929149927 135 94 62 0.5556947365768985 18 13526 19 15319 20 12765
2710 1.4040379421604379 -0.63161846761198159 14.664898890129203 134 93 62 0.39363292219937746 18 13497 19 15320 20 12753
2711 1.4112569049380828 -0.48903150542779988 14.092851705709183 230 206 175 1.3204707391265877 18 13102 20 13492
2712 1.4232719254814192 -0.052402355689873087 14.137166705221226 188 150 107 2.1871509336154573 18 13114 19 15327 20 13547
2713 1.3984463695599931 0.4308530853259695 13.555638884212842 201 167 126 2.0479160366850322 18 12363 19 15329 20 14485
2714 1.3912704039078083 0.43767181650564319 13.572388329354991 190 158 121 1.5564996079737918 18 12253 19 15330 20 14348
2715 1.4102937715917521 0.73826704540572208 13.565597868681676 194 159 117 2.2019466759073416 18 12262 20 14599 19 15304
2716 1.3932512330243241 -1.7368884079895097 15.101900809208459 186 144 101 1.2786208520728031 18 14187 19 15351 20 12300
2717 1.3923655165004887 -1.612772229895898 15.135487415215803 174 138 99 1.7889990567912264 18 14093 20 12266
2718 1.3939071354903558 -1.6653641297211865 15.126402349879683 188 160 128 1.0334867301779944 19 15354 20 12264
2719 1.4002077955660501 -1.5605673660631305 15.115118973566906 195 156 111 1.103196463300796 18 14096 19 15357
2720 1.3914793784039272 -1.5273205645354531 15.162164004903355 64 35 19 2.0340134356634088 18 14028 19 15358 20 12136
2721 1.4123565146059287 -1.4334318937585659 15.181388214287763 167 124 85 0.085178002684519027 19 15360 20 12268
2722 1.4038445241652118 -1.357146122093948 15.177231632639051 180 137 99 1.7574895096659386 18 14029 19 15361 20 12196
2723 1.4097221899981998 -1.3201083190114082 15.181828761067209 208 175 138 2.1762901309180269 18 14101 19 15362 20 12195
2724 1.3883972022111246 -1.1874467564861653 14.558714150572474 222 192 155 0.91249058460623012 18 13587 19 15363 20 12902
2725 1.389336339058554 -1.117376966780798 14.60165792226007 183 147 109 0.82532956115014255 18 13588 19 15365 20 12761 20 12762
2726 1.3920759340606688 -1.0434169178036423 14.636021458197627 206 178 145 0.82747177403382499 18 13591 19 15367 20 12751
2727 1.4049748566180802 -0.96037018220260761 14.630103233239659 162 124 83 1.0580750236395728 18 13688 19 15369 20 12809
2728 1.4002372154778024 -0.96187587242993511 14.612335770824272 133 95 60 0.75335291935611204 18 13593 19 15370 20 12808
2729 1.3923701761416232 -0.87682867305324252 14.582179358306448 158 120 83 1.3250732606440672 18 13488 19 15371 20 12810
2730 1.4125761726121795 -0.80494625666792208 14.627763770407162 188 146 106 2.0774653804370447 18 13495 19 15372 20 12910 18 13724
2731 1.4136227962870123 -0.74417046020168853 14.64980795009472 179 138 96 1.2614032422521142 18 13598 19 15373 20 12813
2732 1.4088785873537517 -0.69233255879741851 14.597955346302038 206 165 118 1.3328813208612873 18 13496 19 15375 20 12912
2733 1.4129045052933373 -0.60170751569313807 14.631409680800896 181 141 105 1.0954045776486108 18 13499 19 15376 20 12816
2734 1.3906259975644997 -0.2469919096067946 14.049735752242801 174 142 108 0.018817785544319496 19 15381 20 13493
2735 1.4241662657788754 -0.12676340618967716 14.114011646573605 190 154 113 2.1288261938748803 18 13111 19 15383 20 13646
2736 1.4265403444570279 -0.11411532297152986 14.096609190314741 183 145 105 2.1251233951267512 18 13113 19 15384 20 13716
2737 1.4559786912864408 -0.044871296467078554 14.15085407934497 180 138 96 0.44243145355152425 18 13233 20 13648
2738 1.428741553282838 0.042682447561946509 14.143076396561222 189 149 103 1.8269177556202745 18 13031 19 15386 20 13550
2742 1.3837481883966081 0.21670961366355027 13.5188181537016 205 174 133 0.76130400198742953 18 12248 19 15392 20 14375 20 14376
2743 1.3888749258911428 0.27698830985180817 13.556044053360777 223 192 159 0.7155367516362432 18 12358 19 15395 20 14346
2744 1.3965112131003443 0.2905321533127016 13.501019554575661 210 177 140 1.5547487185790583 18 12359 19 15396 20 14634
2745 1.3936431186481719 0.35422210034327722 13.569638933573737 194 162 125 0.89034411919225853 18 12360 19 15397 20 14347
2746 1.3940666172445768 0.36339653649571618 13.517216650217389 182 145 106 1.1419994359153185 18 12252 19 15399 20 14484 20 14590 19 15509 18 12170
2747 1.3963003686489677 0.4947859285311576 13.588362783287975 197 164 125 1.2994902018473669 18 12255 19 15401
2748 1.3892074962728727 0.53251451726984178 13.498886276095037 209 178 140 1.6881206935247768 19 15403 20 14486
2749 1.4032760072439381 0.57106624163695174 13.623825068664701 211 178 136 0.98946146656085454 18 12365 19 15404
2750 1.4066469545046043 0.61348031862288133 13.566434251913927 196 161 120 1.7741970238140283 18 12259 19 15405 20 14377
2751 1.4114714638975205 0.69115849265750018 13.579959795236585 189 154 115 1.6526923675851368 18 12261 19 15407 20 14379
2752 1.4198104041383497 0.82088848781581047 13.583261083161439 122 84 56 1.0677145177434137 19 15410 20 14492 20 14493 19 15521
2753 1.4055954715366936 0.88498430604260236 13.389506691120152 204 177 145 1.6065266209710192 19 15412 20 14787
2754 1.4128555018820914 0.90162764911606186 13.370031518144152 131 104 75 1.1462819177461259 18 11979 20 14885
2755 1.4004406909267524 0.96572539273614799 13.370718248899658 206 176 137 0.084230197487706243 18 11869 20 14788
2756 1.4169841541334156 1.0620568872962772 13.39672366578124 104 76 52 0.92077705455108894 18 11986 19 15418 20 14791 20 14890
2757 1.4234614172395774 1.1181808481318911 13.418435011275976 185 157 119 1.7800492161060379 18 12089 19 15419 20 14792
2758 1.3928620897826351 -1.7872704534191639 15.055050192871022 204 172 134 1.4972340794334251 18 14089 19 15461
2759 1.3953635748743629 -1.7321958673658997 15.118100756320848 188 148 105 1.8822562427406069 18 14188 19 15465 20 12263
2760 1.4060699549327971 -1.5960042333731415 15.126432605201305 148 109 73 1.6600730740199272 19 15467 20 12301
2761 1.4070911001104593 -1.4405249402461255 15.179343237252704 191 148 108 2.0705152884586906 18 14099 19 15469 20 12193
2762 1.4268885760296366 -1.3681060369046929 15.215929465308189 180 139 99 0.7458834780435013 18 14235 19 15470 20 12269
2763 1.3990503639739718 -1.1146808496650824 14.601598200313745 189 155 116 0.42613496667254513 18 13686 19 15473 20 12804
2764 1.4000092541471976 -1.0410795152432957 14.646384732127119 190 162 130 0.21833404938803203 18 13687 19 15475 20 12750
2765 1.407420222746617 -0.95222798319327251 14.64823017802966 176 136 92 1.3259542230525641 18 13689 19 15477 20 12763
2766 1.4064114804894077 -0.8940424545034632 14.642851313397411 181 143 102 1.0367609876323562 18 13596 19 15478 20 12764
2767 1.4076637962092327 -0.8874140442013313 14.582847689832736 141 105 72 1.6101777243150615 18 13521 19 15479 20 12981
2768 1.4098334562838291 -0.82397265834127764 14.595941274209755 186 142 99 0.18936852968314663 18 13523 19 15480
2769 1.4190430811472559 -0.68645072279852548 14.595750684308742 202 161 112 1.6891312607904034 18 13525 19 15483 20 12983
2770 1.4345150537083557 -0.61977648788279927 14.664942033706675 190 149 110 2.0068048958759621 18 13728 19 15484 20 12914
2771 1.3891730612950253 -0.38768501852206499 14.013385277412068 205 176 137 1.4912002232026402 18 12999 19 15489 20 13541
2772 1.4186954444349655 -0.27424245004461095 14.08999480492033 180 151 114 1.7887012385691161 18 13108 19 15492 20 13640
2773 1.3855007521505498 -0.26766814924682736 13.974690860124328 179 146 110 1.3792719780750959 18 12813 19 15494 20 13639 20 13714
2774 1.3914135495160127 -0.17971442842755136 14.041016870910633 144 107 76 1.3884975886604092 18 12924 19 15495 20 13494
2775 1.4489187719832628 0.088646966660615042 14.173417972722236 163 134 108 2.6252195550180448 18 13235 19 15501 20 13652
2777 1.3936365260828179 0.28141619208523866 13.510124103904474 227 199 167 2.1484436260509114 18 12249 19 15507 20 14589
2778 1.40681863526226 0.49828092914364791 13.540477041077738 187 153 115 1.865380905343119 18 12254 19 15511 20 14592
2779 1.4073950319881832 0.56712192670438843 13.56917861343222 206 173 133 1.0362573876388046 18 12257 19 15514
2781 1.4156250221945055 0.64760251716084472 13.557541268862542 202 170 132 1.2633623342507063 18 12260 19 15517 20 14596
2782 1.4066222428300637 0.68718539429744652 13.549406438386093 176 137 98 2.6319361401092789 18 12146 19 15518 20 14378
2783 1.419048366444897 0.72773719774612111 13.596199358727239 197 160 118 1.916101656314984 18 12369 19 15519 20 14490 19 15408
2784 1.4134919456856796 0.92281724145257671 13.413347321411731 208 182 149 0.88446542825163943 18 12084 19 15524 20 14691
2785 1.41888677903156 0.93221768133040228 13.334901905451151 179 154 121 0.82674376793387916 18 11981 19 15525 20 14929
2786 1.4174293618090437 0.98942578650269075 13.390421754605844 166 137 102 1.282991619673082 18 12087 19 15526 20 14887 19 15415
2787 1.4211520068782744 1.0596291363384671 13.385990483830572 132 102 75 1.4511487612148393 18 11987 19 15530 20 14888
2788 1.4264026948877524 1.1210749562087161 13.384561451586908 176 147 112 0.90268593219991067 18 11988 19 15531 20 14917
2789 1.4222913177523901 1.134212088566467 13.403509562850379 155 127 95 1.3352510366805013 18 11989 19 15532 20 14793 20 14891 19 15420
2790 1.0881435314825092 0.99798851722218096 9.0810490501798 197 160 116 0.3209095221256576 18 4107 19 15543
2791 1.3792473246348682 -1.8480696834973505 15.098666998523573 223 196 163 1.7315820085293894 18 14087 20 12262
2792 1.4168005900118339 0.99330604421709989 13.403940331080731 182 152 113 2.1029517794756161 18 11983 19 15572 20 14692
2793 1.4380128460605626 -0.74706456549989009 14.623789400336561 146 105 66 0.46223615365231369 18 13726 19 15579 20 13004
2794 1.4181912891968609 0.49894230927657796 13.536821788940317 192 166 133 0.3190060993497334 18 12364 19 15582
2795 1.459798804323396 -1.4665724196663774 15.212281320480344 83 52 32 0.40856279527633205 18 14269 19 15590 20 12313
2796 1.461321315141356 0.10004685741041575 14.143755137132555 108 77 58 0.44797494835494128 18 13190 19 15593 20 13719
2797 1.3828322319780175 1.6614797470521452 12.057679388533176 187 155 122 0.21673320634851523 18 10153 19 15596 20 17171
2798 1.3434240789252825 1.8026468110860274 11.462352871753229 101 89 69 0.59230809796144446 18 9045 19 15597 20 18310
2799 1.450407320775505 -1.7371653253770183 15.13067434739413 129 93 64 0.41066650488883755 18 14268 19 15601 20 12323
2800 1.4591469983290273 -0.11922951871990024 14.094099794896483 73 43 23 0.60451770422933249 18 13230 19 15602 20 13746
2801 1.4692196511734354 1.1402947179923248 13.398696859315933 141 113 86 1.1269897434304981 18 12136 19 15606 20 14935 20 14948 19 15632
2802 1.4578374596707613 -1.7874843561224818 15.127093505618799 190 154 115 0.80178885874433758 18 14325 19 15614 20 12340
2803 1.465096623724327 -1.7022202123839518 15.129331301147461 104 70 46 2.0106288860758612 18 14327 19 15616 20 12400
2804 1.4810335550263867 -1.3958136407696857 15.184686349747576 180 138 99 0.5217401916454163 18 14334 19 15619
2805 1.4726986046532493 -0.96622425212139063 14.614732027529856 139 98 64 1.3576068551402358 18 13852 19 15621 20 13037
2806 1.4911490822641877 -0.68247783879999702 14.630248750562478 187 145 101 2.1512127486212247 18 13857 19 15624 20 13078
2807 1.4885542048213845 0.89247726169919395 13.356582606646286 167 142 110 1.1322888120502377 18 12268 20 15183
2808 1.478929701019229 0.98339985831700916 13.399374599401154 172 143 109 1.0242749869629393 18 12270 19 15631 20 14988
2809 1.3579628703981756 1.7796960574296996 11.486986980971329 151 150 133 0.25355125270332057 18 9249 19 15633 20 18309
2810 1.4654719018788627 -1.6440527193744812 15.05679342981114 181 147 113 1.721075686569739 18 14248 19 15655 20 12510
2811 1.4765033294683907 -1.5814018432820121 15.113340442598671 164 123 81 1.6274965233470584 18 14329 19 15657 20 12402 20 12511
2812 1.4792822589273735 -1.3653308577799035 15.144842097488965 197 159 121 1.804978366639195 18 14249 19 15661 20 12408
2813 1.4702907030925185 -1.1267572108480124 14.57847755975998 183 147 112 1.1196273980131992 18 13846 19 15665 20 13067 18 13847
2814 1.4737612265603375 -1.04222760657175 14.593100859683247 186 150 117 1.8361802068716404 18 13849 19 15666 20 13071
2815 1.4662321475483979 -1.0453289487032347 14.652368559466517 170 136 102 0.094182878611627135 18 13850 19 15667
2816 1.4827072389572813 -0.96758802193403104 14.619746103433684 174 134 92 2.2553815155916679 18 13940 19 15668 20 13074
2817 1.4800825359198095 -0.81448869707776272 14.577564454263916 170 125 83 1.0503172824725115 18 13762 19 15670 20 13160
2818 1.4926543046555509 -0.69612734167460733 14.579802429981354 155 115 81 2.107301062122477 18 13780 19 15672 20 13229
2819 1.4969058260013208 -0.60586430346205111 14.616389926520858 178 141 105 1.2099969434676614 18 13782 19 15673 20 13165
2820 1.4933233087253615 -0.50602195309502163 14.057835847856246 228 206 177 0.15738265155464853 18 13363 20 13839
2821 1.4179156335579985 -0.43613552838873731 14.081241370069709 227 208 181 0.024050543670437324 18 13104 20 13540
2822 1.4880132721242878 -0.26307245009105823 14.110365868767358 196 167 126 2.5199644493737789 18 13371 19 15682 20 13779
2823 1.4589584412442151 -0.17880503719731988 13.971763138428992 175 142 107 0.38546477967787612 19 15683 20 13948
2824 1.502267854075459 -0.053511035768299076 14.123422579158133 167 125 85 2.4806707099894392 18 13376 19 15686 20 13852
2825 1.5158700474140505 0.094051945706993115 14.164811591744689 75 40 21 2.8089335372313862 18 13445 19 15690 20 13858
2828 1.4618847502965457 0.28348193295276175 13.512741749403915 229 201 169 2.2698359802495269 18 12550 19 15694 20 14773
2829 1.4589821427202674 0.35190918345717553 13.618666789300812 151 113 80 0.62595245005302469 18 12647 19 15697
