# 3D point list with one line of data per point:
#   POINT3D_ID, X, Y, Z, R, G, B, ERROR, TRACK[] as (IMAGE_ID, POINT2D_IDX)
# Number of points: 416, mean track length: 2.8823217799303769
5385 0.43325746575958562 -0.37358128763667192 0.32917067647335191 82 62 46 0.4512656584588669 1 6877 2 4382
5386 0.47541976451671286 -0.38771844395450977 0.33442341587135993 71 51 34 0.89727036155560413 1 6987 2 4472
5387 0.52962754798984579 -0.40630169775799152 0.35336025787030012 63 45 31 0.88060455744928978 1 7106 2 4574
5388 0.94007462170305789 0.3991225311621851 0.50834414346874068 58 40 25 0.11589186476022255 1 7459 2 4580
5389 0.94085934433343399 0.31041200726153578 0.57617301029613333 55 37 23 1.2687896732201698 1 7531 2 4657
5390 1.0063131063786324 0.40893362255548998 0.47537018731164732 60 44 29 0.67250313555476149 1 7571 2 4679
5391 0.61911932077305976 -0.39800626821082941 0.33002730528242408 58 43 34 0.11105869656719916 1 7264 2 4692
5392 0.64729912785695232 -0.35874830777629269 0.3219076839916411 59 43 34 0.23911376738125206 1 7309 2 4699
5393 0.25047345007317756 -1.1114854031462076 0.21940504844614853 184 148 113 0.19795863454761414 1 6974 2 4717
5394 0.62829698741728379 -0.3971697158415145 0.35031352248965025 59 40 27 0.074013981133848245 1 7307 2 4722
5395 1.1401702541299354 0.55702913700767509 0.51304632257001759 125 117 114 1.2529915171876125 1 7678 2 4751
5396 1.149973525174508 0.5506170896078989 0.52100639129977688 107 85 66 0.14274161509771438 1 7732 2 4754
5397 0.64470226440836742 -0.44137329935160141 0.37837146254276705 72 53 36 1.4262283681897454 1 7403 2 4771
5398 0.66626979768763861 -0.4102947411521814 0.35409074904381921 68 48 30 0.28195436547917474 1 7404 2 4794
5399 1.1250172973247259 0.41163422973289193 0.50915845878385269 84 64 48 0.3231861582770667 1 7786 2 4820
5400 0.3023716601349215 -1.1433648870328339 0.26982211329234423 191 158 127 1.8814602728688432 14 62 2 4840
5401 0.39993146447678929 -1.1486553663956427 -0.34570661209530079 169 141 111 0.50584357669319902 14 74 2 4917 3 5303
5402 0.28441741097308809 -1.1692950252495506 0.33406429413674454 170 130 90 1.6521197395055651 14 52 2 4924
5403 0.2789349922225437 -1.2025196221559835 0.37727027099335453 205 176 140 0.38168487004145052 14 83 2 4934
5404 0.31991152052748195 -1.1552849463319164 0.26699707233133702 194 163 128 0.33752403038080447 14 87 2 4939
5405 0.35092126793875211 -1.130213544328341 0.25492359859350366 177 148 120 2.1129296656233287 14 134 2 4940
5406 0.28302277346302845 -1.1961518450909825 0.37578050501650273 223 201 167 1.3433600645988115 14 100 2 4965 3 5742
5407 0.31640982071789769 -1.1926433783142678 0.28562367724749405 191 161 124 2.6280794801484424 14 157 2 4969
5408 1.1677699490212075 0.32132395565264033 0.54049423717032941 56 37 23 0.80380557753933024 1 7899 2 4982
5409 0.33210668970242929 -1.2047126429620927 0.28671630803058057 185 162 128 1.0356922561192579 14 190 2 5028
5410 0.35344283129221543 -1.1678149236843229 0.27612242986831842 192 167 135 0.57741715005241634 14 194 2 5029
5411 0.48361951043470452 -1.1428383998199181 -0.51114437515881506 176 142 101 0.29442461769588307 14 281 2 5054
5412 0.32045327498378573 -1.2160433936347144 0.35169764733518777 209 187 156 1.08869451009703 14 221 2 5060
5413 0.35292070275834919 -1.1715206690591309 0.27407837541749663 200 176 141 0.020169920476488599 14 193 2 5063
5414 0.46089171544584673 -1.1300589205601168 -0.26627766417337206 176 151 128 1.0567185107749435 14 258 2 5100
5415 0.32783781600727852 -1.2213472524740472 0.35596978519614375 161 136 104 1.1644716507279511 14 245 2 5107 3 5915
5416 0.32791972878195946 -1.2218908032984623 0.35892638249087089 118 89 57 1.5527344538566845 14 244 2 5112 3 5914
5417 0.47090880277220648 -1.1611504958868688 -0.32932891227099476 187 163 134 0.97398798754885252 14 336 2 5114 3 5469
5418 0.78562457313323841 -0.48707549069026768 0.45974041692534101 61 42 27 0.22503768387739517 1 7707 2 5169
5419 0.50612254615439634 -1.1358309962013191 -0.34692042246913285 153 128 98 0.82404234201071369 14 414 2 5178
5420 0.5095278202639697 -1.0072496926279122 0.23696068683192262 84 62 41 0.38194300510759882 14 412 2 5190
5421 0.48983031056663673 -1.1793334822605832 -0.37752532885658563 147 118 87 0.54719299506265273 14 424 2 5194 3 5485
5422 0.51136099515949951 -1.1647891107740822 -0.44944023910493425 124 92 63 0.8029379555305004 14 433 2 5198 3 5470
5423 0.34871139968684267 -1.2226829604611738 0.47102709724939584 214 197 166 0.45208565611611445 14 346 2 5200 3 6059
5424 0.44704578441639448 -1.1180865439023877 0.31195817767960787 129 102 74 0.026241219382222472 14 421 2 5204
5425 0.82964843531734256 -0.49084514930621564 0.4868009876727511 67 47 30 0.36533905006280976 1 7813 2 5262
5426 0.82655963454892944 -0.53524431076746604 0.54528168664541443 61 44 29 2.0979963426474186 2 5347 3 6049
5427 1.3147095870374987 0.23528735725482361 0.62868734116102931 78 63 53 1.1548531253257996 1 8217 2 5355
5428 0.54586867292023755 -1.1985334362775384 -0.37085693660226515 161 134 104 0.46080558824104118 14 600 2 5383 3 5623
5429 1.3538286115562117 0.22434789083970669 0.6384892632255047 67 50 39 0.54745406059738633 1 8294 2 5399
5430 0.42923994232792817 -1.2491443466993961 0.4236112468848176 195 171 137 0.60605607328620936 14 551 2 5404 3 6210
5431 0.42691842904273769 -1.2447362351661488 0.4644719971836675 243 236 217 1.1845903234072563 2 5438 3 6228
5432 0.67736154701743911 -1.0949804032185384 -0.58456844517081252 201 176 142 0.10923695418016395 14 788 3 5564
5433 0.59702822213112461 -1.1759073788885308 -0.23039903754828089 129 171 218 2.4701360536335546 14 736 2 5501 3 5840
5434 0.46219492644864729 -1.2645206804171956 0.43171798799085315 207 180 146 0.57370647166519606 14 661 2 5516 3 6282
5435 0.97576821152992621 -0.49051553075734194 0.4857848028704857 65 48 32 1.6491387816600018 1 8071 2 5531
5436 0.58841349770435769 -1.1507250603623234 0.24771775304562182 118 95 72 2.6751414202748958 14 792 2 5593 3 6166
5437 0.48460056501181137 -1.2752773898056518 0.43927071013368812 210 183 147 1.3833314326060522 14 705 2 5614 3 6340
5438 0.56190799302820948 -1.2382638683361027 0.31945198033056488 127 100 73 1.6508388078739873 14 851 2 5694 3 6312
5439 0.56681091561990182 -1.2462173900571416 0.33417660098570673 200 174 142 0.97366856987297634 14 872 2 5713
5440 1.0372791284809497 -0.53856494312243097 0.46780653836695868 71 48 30 0.48622020322731491 1 8233 2 5721
5441 0.53340712739847196 -1.2666797879757077 0.42984824121276732 145 120 91 2.6498909565027202 14 848 2 5744 3 6374
5442 1.0166681432235538 -0.56173663549502306 0.52055809082666882 70 50 32 1.2860935235777069 1 8175 2 5777 3 6332
5443 1.0251653440989663 -0.56501378110953682 0.5203326681545517 73 54 37 0.61776000289272615 1 8232 2 5778 3 6372 16 137
5444 0.65277846105159798 -1.2286300065280236 -0.2965253965833633 180 154 116 1.2649558846711553 14 971 2 5785 3 5919
5445 0.73231184956266593 -1.1624649673059113 -0.47742814978028131 165 135 101 0.2830182634888187 14 1098 2 5790
5446 1.5481825613570521 0.1682888157751998 0.69365559034504543 67 47 32 0.17377842953426664 1 8616 2 5804
5447 0.67489306314176922 -1.2419076635792765 -0.33488624946170709 193 176 147 1.5098049136496055 14 1079 2 5808 3 5921
5448 1.0545967713529909 -0.57045349268988788 0.53171010442457201 105 96 88 0.85318030217753782 1 8245 2 5831 3 6430
5449 1.5964845138831434 0.19519998334119384 0.65050193203370954 70 55 44 2.1164615473436599 1 8695 2 5842
5450 1.1493103190331733 -0.48930196422650474 0.47029278625634191 66 48 33 0.19701226201541797 1 8396 2 5886
5451 1.0994044335153847 -0.58416932937758592 0.53495335140954459 60 41 25 1.4865082185498766 1 8366 2 5926 3 6475
5452 1.5749187233030177 0.11386763409858651 0.73211974877056174 55 35 22 0.033606905592083923 1 8660 2 5931
5453 1.5951805253540683 0.14907356500424401 0.6968395687680502 55 33 18 1.1345355934313406 1 8661 2 5932
5454 0.71544660796685289 -1.1782499146592982 0.21530034667043532 82 60 41 0.4298336547270914 14 1154 2 5962
5455 1.1329683955876142 -0.57415930737917242 0.50207424651179478 75 50 32 0.38735470301431851 1 8419 2 5976
5456 0.60963058777680135 -1.3208761424424458 0.51481717598509913 243 231 207 0.045036428267035744 14 1106 2 5996
5457 0.61808811981808154 -1.3098631790766695 0.48429818151605747 199 171 133 0.3735328148487469 14 1108 2 5997
5458 1.1427750152814515 -0.60157288109503104 0.50670577429666053 111 93 80 1.2294273781815546 1 8453 2 6012
5459 1.621843077044085 0.10572899312667002 0.7471045561341999 70 48 29 1.199477659272713 1 8743 2 6017 3 6537
5460 1.6960056129751058 0.16782011394868787 0.68198697520980711 58 40 31 2.0880815957565506 1 8866 2 6019
5461 0.6151024830229973 -1.2765407533643609 0.64596685900746753 161 178 208 0.62983536550635888 14 1087 3 6712
5462 0.74256766091881177 -1.2608107202690917 -0.26562940653744588 183 155 122 0.26580899896508925 14 1330 2 6053
5463 0.62903480166982184 -1.3305484778944816 0.49351930022467505 173 160 136 1.1262133255471223 14 1156 2 6063 3 6643
5464 1.2054822138898382 -0.58200467194160999 0.49734083423495173 63 46 32 0.58437396616142878 1 8539 2 6092
5465 1.6736028414350084 0.083915025976107907 0.75656406758421535 57 34 18 0.11562109255231295 1 8827 2 6095
5466 0.8173841207237037 -1.2226379924258737 -0.44097979628955286 191 164 129 0.45024399445843555 14 1456 2 6108
5467 0.69920091695067821 -1.3208254397009485 0.40299767936556347 194 167 129 1.4193436230824881 14 1332 2 6137 3 6697
5468 1.2489858434314356 -0.59510100695721602 0.50863261056723363 67 49 36 1.0187457357908696 1 8602 2 6166
5469 0.72498828450735309 -1.3355113139578787 0.40191443426689416 189 168 137 1.2666448814840494 14 1398 2 6225
5470 1.2292361710662203 -0.67013837275085808 0.60726945191940729 70 52 36 0.04662980419908902 1 8600 2 6230
5471 1.2721734944817595 -0.61451874558985453 0.56930701800425554 89 72 60 0.47427317671310498 1 8641 2 6231
5472 0.83844758672222885 -1.2934777573788554 -0.24610839381457489 222 201 171 0.21884537337550708 14 1633 3 6309
5473 0.75993138122500392 -1.3473983861124972 0.53299845424066372 197 175 142 0.65252514491558244 14 1478 2 6292
5474 0.78768065989227043 -1.3356047396432111 0.42521785804153628 173 152 119 2.171132142628212 14 1537 2 6295
5475 1.3118999274157779 -0.69507094020581517 0.6175867011876256 59 38 24 1.8572853854511009 1 8759 2 6347
5476 0.87736324022097611 -1.3215775735731281 -0.29136071448018019 147 124 99 1.1230609592625411 14 1793 2 6349
5477 0.80029037669754932 -1.3557329790943073 0.63154018366871278 141 124 110 2.2732983813626011 14 1595 2 6367
5478 0.80867192063534654 -1.3401953154390234 0.43768924027703382 183 161 127 0.42942042200222152 14 1578 2 6373
5479 0.82767427251597525 -1.3420893240431762 0.48068611260515293 130 92 59 1.5994692183140495 14 1641 2 6418 3 6959
5480 0.83092827013201032 -1.3516011189005988 0.44237878358986249 196 173 138 1.3254166673076617 14 1656 2 6432
5481 0.95298520904866346 -1.2879391520720043 -0.35122827690831782 187 157 118 1.0563172818213531 14 1963 2 6448
5482 0.81944394686192046 -1.3800450223850971 0.51460679197853176 195 168 131 1.9772932066165474 14 1693 2 6479 3 7035
5483 0.859465967525741 -1.3667395242473177 0.43482306718879787 147 118 86 0.80232280528756394 14 1769 2 6519 3 7036
5484 0.86501442810850548 -1.3747944546281845 0.44157881858629888 173 152 123 0.097521865540889971 14 1786 2 6534
5485 0.92702807999541026 -1.3473810839468112 0.40858136537402562 218 207 189 0.89965023705744951 1 8527 14 1898 2 6612
5486 1.4718226757653676 -0.70549519176117792 0.64047823858975539 104 87 68 0.85484855790072189 1 9011 2 6655
5487 0.90381842081296648 -1.3892066007094968 0.49795114995466661 232 219 198 0.025615015917976693 14 1893 2 6676
5488 0.99358557997437236 -1.3360440935015587 -0.20604252414571633 206 184 153 1.8074955580979442 14 2145 2 6687 3 6570
5489 0.96413076946884479 -1.3631517255103516 0.41859025654384413 221 211 192 0.95792135048749005 1 8572 14 2024 2 6717
5490 1.0079284325830531 -1.3441224413411661 -0.28789687085443744 221 195 158 1.3633597956440902 14 2224 2 6731
5491 1.0319519506504649 -1.3345143457713797 -0.34497196731620061 184 157 124 0.58553841517366267 14 2347 2 6732
5492 1.5281702205044658 -0.72329380031489954 0.63142194172159527 70 50 32 0.018972287782176248 1 9138 2 6772
5493 1.5012125088324113 -0.76218461773903556 0.65379159663563569 74 57 45 0.13738178471631943 1 9067 2 6774
5494 1.0219119447503966 -1.3538398582123468 -0.2377775733614696 155 128 100 1.3771606418502274 14 2279 2 6775 3 6635
5495 0.97988061298095686 -1.3859706627791941 0.45278093971878064 220 197 160 1.0860727406468891 14 2083 2 6800
5496 0.98386652550711229 -1.3785834470851022 0.41760469982025106 222 218 207 1.6652696813829806 14 2084 2 6801
5497 1.6123610879655605 -0.65312224556483711 0.65938810176823748 85 61 40 1.3049118013916663 1 9240 2 6848 11 13123
5498 1.0590546695959613 -1.3630512578436389 -0.28671731542310391 171 145 115 1.0716815432111204 14 2550 2 6879
5499 1.0531133354172801 -1.359144957689304 -0.18287618612248774 204 190 169 1.6629433377423126 14 2450 2 6884 3 6669
5500 1.0474894494223088 -1.3646993936407996 -0.2357713612971491 170 145 112 0.88808355230316516 14 2446 2 6885
5501 1.0615811763514007 -1.361089126223052 -0.28539611472890986 148 121 91 0.41916344139786377 14 2551 2 6886
5502 1.5670972214014598 -0.7592613187602435 0.65653967120858869 65 34 14 0.20353666007917365 1 9278 2 6895
5503 1.6239089466079495 -0.69511487455124843 0.64857788697982854 82 50 26 0.18410972870573644 1 9319 2 6896
5504 1.0761068996415 -1.3745527900543961 -0.22424786216057049 209 188 159 1.3623982559194783 14 2608 2 6932 3 6734
5507 1.0153454581619805 -1.4197830435181031 0.48557863592421652 209 183 149 0.86109594027037539 14 2272 2 6970 3 7460
5508 1.6217730993011623 -0.7259816322569862 0.64260684953380853 86 52 27 1.4318981476633805 1 9318 2 6976
5509 1.1207210127276834 -1.3502824424385598 -0.11599559313550796 138 117 90 2.259336013715759 14 2726 2 6981 3 6800
5510 1.0908369957389947 -1.367633381542924 -0.2242412363786391 198 182 158 1.7699605003393559 14 2657 2 6984 3 6728
5511 1.0379815021307759 -1.4323924758293771 0.66548538693060422 212 194 168 1.0623531977300293 14 2326 2 6994
5512 1.0376257962913855 -1.4231387315384669 0.50270496852323254 212 183 144 0.7722889098964455 1 8731 14 2327 2 6999
5513 1.0370319799710415 -1.4324206314015953 0.66514809421738263 214 196 171 0.11707274791186834 14 2291 2 7021
5514 1.1212106768728749 -1.3829890113012353 -0.2697041282671967 145 114 82 0.20573823219644943 14 2824 2 7052
5515 1.0634439328299683 -1.4415677022058444 0.67341570803473605 221 211 194 0.76980416911047578 14 2405 2 7069
5516 1.1487165158098922 -1.3863060753620315 -0.25428724254157936 231 219 199 0.43694976944938702 14 2959 2 7093
5517 1.1654147810106952 -1.3906075646126779 -0.24658491343636102 231 215 192 1.9158980746925378 14 3075 2 7127
5519 1.1698302713367994 -1.3971856516224024 -0.20475991800511173 225 214 194 1.8930969747525974 14 3112 2 7135 3 6889
5520 1.2421676112153646 -1.3678734099402632 -0.32893647427386408 201 177 145 0.86806533512537731 14 3499 2 7231 3 6830
5521 1.1667761382166442 -1.4523554163306911 0.54638057429885634 230 214 186 1.3160263734258211 14 2851 2 7239
5522 1.2073562217170006 -1.4174459570858635 0.49712092212897147 222 224 221 2.2106255374191157 14 2951 2 7242
5524 1.2406948105180151 -1.3731916916659952 0.4643893316598256 89 68 50 1.439909984330713 14 2953 2 7297
5525 1.1451171247728769 -1.47364238656322 0.71313716711449482 160 148 142 1.8521075167824672 14 2744 2 7301
5527 1.2291416505892523 -1.4124582858508306 -0.12769313241064675 224 216 198 1.6501206882305504 14 3362 2 7310 3 7090
5528 1.228471532191741 -1.4288045804055929 0.50159140434094418 142 142 143 0.012907542013547744 14 3029 2 7333
5529 1.2417342551325417 -1.4249289309768975 -0.18678981547294873 205 186 157 1.0891385296308294 14 3622 2 7351 3 7042
5530 1.26077721797841 -1.403601963626816 -0.26493032179279707 237 228 207 0.058685928641843799 14 3659 2 7355
5531 1.2441570424538486 -1.4230407078632323 -0.17986317445130717 210 188 158 0.27032407358182425 14 3596 2 7374 3 7048
5532 1.2316042311444066 -1.452630606213237 0.51455026571007578 180 160 132 0.86634389497004505 14 3125 2 7383 3 7957 16 6109
5533 1.2021545897602315 -1.4967668703707784 0.62605442731433247 236 226 200 1.1229272130149015 14 3028 2 7410
5534 1.220146878915948 -1.4947811754918126 0.62102812986118727 214 187 146 2.5163851774088783 14 3143 2 7411 16 6262 3 8100
5536 1.2213142054709121 -1.5068476696750051 0.61461359945135041 235 223 196 1.2108410593054026 14 3165 2 7468 16 6441 3 8188
5537 1.2296259920462245 -1.4943400111674783 0.65259173703536921 230 216 188 1.3093145771598964 14 3164 16 6253
5538 1.2512817020400051 -1.4864641757192079 0.56680140316935512 214 188 154 1.3721201574353328 14 3245 2 7476 16 6436
5539 1.2517800192763724 -1.5060867369853126 0.63352971129718494 185 154 119 0.8783204302517722 14 3301 16 6475 16 6476 3 8266
5540 1.2994087893535784 -1.4366466116482828 0.50807275793657292 102 94 87 0.15884884818259515 14 3373 2 7481
5541 1.3019788252438438 -1.4411029903816224 0.50189550658133375 78 66 54 0.055310774319433473 14 3439 2 7484
5542 1.246090529834496 -1.4969337040473885 0.60329869484297871 194 165 133 2.0141162788499472 14 3241 2 7496 16 6440 3 8189
5543 1.2895751433605303 -1.4585028968550939 0.51481409412777546 124 114 109 0.23252307567819103 14 3389 2 7499
5548 1.2542728562964112 -1.4923083713004996 0.56755841058242285 84 65 47 1.2971933893621053 14 3303 2 7521
5549 1.2878004239250782 -1.4712741106288232 0.55007171815363187 98 84 69 0.36805922631331672 14 3437 2 7522
5550 1.2753798355169845 -1.4742265407753581 0.5223955007892207 99 89 75 0.85853650282097704 14 3364 2 7523
5551 1.3080079608317561 -1.4400161717530444 -0.11892511687377179 172 147 111 0.67538267531024931 14 3935 2 7541 3 7251
5552 1.2664798424200434 -1.5216956574896996 0.59520567575822125 81 59 39 1.6180446026438251 14 3496 2 7579 16 6793 14 3497 3 8313
5553 1.2815306315780581 -1.511219151083155 0.59047420619524382 79 54 32 0.76510877415198753 14 3511 2 7587 15 1219
5554 1.2758683579058112 -1.544796666927146 0.65854789887755782 116 103 87 1.1042900400325089 16 6975 14 3540 15 854
5555 1.2971654440479705 -1.4934558121380035 0.55017658934921521 86 69 55 1.3616404370389872 14 3528 2 7599 16 6776 15 1462
5557 1.2716763606519352 -1.525431919501814 0.63367252512666161 96 74 49 0.62316049077582936 14 3495 2 7609 16 6792
5559 1.2793104453757813 -1.5441215987356793 0.58344083110521328 93 66 41 0.14696654973292628 14 3628 16 7131
5560 1.2773068781103976 -1.5299612227644368 0.60959753984118825 103 84 64 0.92286582591516042 14 3526 2 7635 16 6921
5562 1.3198971914388375 -1.4843556583836508 0.67208088515295106 76 53 32 0.63877812733813188 14 3542 4 9972
5563 1.3372989972644247 -1.4509495372451868 -0.18166494997781657 240 233 216 1.5588935482048147 14 4190 2 7652
5564 1.3456092903817702 -1.4534886481518046 -0.21936434626934903 213 204 186 0.021988113380672046 14 4298 2 7654
5565 1.4025111914228481 -1.4013310595352035 -0.30455081514845272 221 201 174 2.0094567938630252 14 4537 2 7658 3 7157
5566 1.4232211986552807 -1.3841053509709085 -0.31285490620076484 167 139 114 1.5482050169350512 14 4591 2 7659 3 7158
5567 1.3204533887844883 -1.4883685604316212 0.53234863886840822 111 104 99 0.46558865469549698 14 3654 2 7665 15 1578
5568 1.320476932582938 -1.4890730410442035 0.52484449098766861 124 112 101 0.31739543178241714 14 3655 2 7666
5569 1.3530905919574221 -1.4590145367751934 0.50541299332465606 134 111 88 0.018440631128268478 14 3756 2 7667
5570 1.3764911149167784 -1.4417678997731984 -0.21213343997739001 234 225 207 1.7760768541762042 14 4455 2 7675
5571 1.3001783284890727 -1.5182841726580802 0.56352271737020843 94 73 54 0.30760299153573734 14 3642 2 7678 16 6976
5572 1.3560402869292647 -1.4605579600187979 0.50604841191022809 128 99 69 0.24857499959621987 14 3758 2 7679
5573 1.347695883787656 -1.4643540577577052 -0.19572697312699219 237 221 192 0.18892206694457453 14 4365 2 7681
5575 1.301861970705094 -1.5195292975119232 0.56727996314223217 114 102 89 0.43690443497702874 14 3645 2 7684 15 1324
5576 1.3850954944730556 -1.431877198974558 0.49457238113297908 119 89 59 1.056563380058001 14 3783 2 7685
5577 1.2820777112307835 -1.566061465849808 0.66929148769900759 116 84 51 0.77488554124051878 14 3641 16 7151 2 7704 15 800 3 8564 17 12838
5578 1.3070286216260938 -1.55698221155896 0.86596271608033815 88 115 158 1.2774307406533905 14 3627 2 7699
5579 1.2937071556733561 -1.5446257648822022 0.61025316208233682 110 73 36 1.3755961716460838 14 3644 2 7705 16 7130 16 7144 3 8344
5580 1.3974050014770416 -1.4550464599193991 -0.17457374756235591 215 181 138 1.6828172129728869 14 4585 2 7712
5582 1.3308784083771796 -1.5305215088387896 0.54130081267827801 158 141 121 1.9358712069522734 14 3780 2 7738 16 7280
5583 1.4010357529936412 -1.447329047145552 -0.19745030020004223 221 207 179 0.34693841120340585 14 4586 2 7754
5584 1.3147626750980361 -1.5508750816096339 0.56145447792673597 144 117 85 0.20917896711360279 14 3777 2 7782
5585 2.1587415554509177 -0.76352838138350065 0.6711265909373243 125 97 70 0.013739482630970299 1 10843 2 7790
5586 1.419812952672018 -1.4628285822760934 -0.16533007496383623 213 181 138 0.24484250603291594 14 4713 2 7798
5587 1.3933630456737918 -1.4997497309815877 0.4994420277728347 91 52 25 0.81623887064466016 14 4051 2 7801
5589 1.415389090027289 -1.4616342931781521 -0.20088594553247519 230 216 189 2.0068274913699584 14 4680 2 7850
5591 1.3213954904308656 -1.6060666267564128 0.82888536261686374 99 65 33 1.5036491517749293 14 3877 2 7862
5592 1.2980382464581108 -1.6066513054186642 0.67228858583271323 81 47 21 1.3879391409274844 14 3837 2 7864 16 7650 15 790 3 8685 17 13111
5593 1.2998222531638619 -1.6079421646444891 0.67048225189825739 77 43 19 1.5256530087374585 14 3878 2 7865 16 7655 3 8689 17 13112
5594 1.3144837939860778 -1.5886384028984275 0.59760075595004603 158 127 90 1.2002713994641079 14 3900 2 7866 16 7651 15 1125
5595 1.4268716960432106 -1.4765274480082422 -0.096248041847388846 170 146 109 1.3095190034516146 14 4777 2 7872 3 7533
5596 1.4321938563671479 -1.4730900285741089 -0.10236107943677246 213 181 139 1.1893588189942577 14 4788 2 7873 3 7549
5597 1.3124682772144709 -1.6188182215579714 0.80103728653837125 79 47 22 1.3033154291475695 14 3888 2 7884 16 7619
5598 1.3091527919685 -1.6673982581867273 0.88868586779553893 91 102 129 2.2373763848883126 14 3915 2 7916
5599 1.3317505712423534 -1.630024513508096 0.62478253886249069 103 66 33 2.1682989539327355 14 4041 2 7925 16 8138
5601 1.4554061895656563 -1.4913365601799737 -0.13032868357138269 133 105 74 0.81497265434359389 14 5028 2 7969 3 7559
5602 1.3243685042111384 -1.6500325395095066 0.88385695180188084 79 49 27 1.1970658771308014 14 3972 16 7848 15 161
5604 1.3398325681716263 -1.6508029703663278 0.64188459965968814 146 117 84 1.5809444060936044 14 4178 2 8000 16 8229
5605 1.3493488014233861 -1.642935324888936 0.62039613580760233 132 108 82 1.514035232093315 14 4179 2 8001 16 8297
5606 1.3637500298737253 -1.6352229797643876 0.58313248582195032 120 91 64 1.2345339622708604 14 4310 2 8002 16 8231
5607 1.3548620331528991 -1.6340687015260149 0.5626587719081475 113 88 59 1.0163738994313216 14 4276 2 8004 16 8233
5608 1.3714160185855102 -1.6238002981078072 0.5574092965560683 93 63 39 0.041164373270936153 14 4311 2 8005
5611 1.3899825228826055 -1.616829537746008 0.52983817463199245 84 57 37 0.7894208999619633 2 8054 16 8235
5612 1.4907346986439451 -1.4972321451209814 -0.10897637454651732 85 62 42 0.59654728321036765 14 5194 2 8078 15 4584
5613 1.4924896310728977 -1.4936030245429408 -0.13702766286296236 86 63 42 1.1341274590685297 14 5226 2 8080 15 4672 3 7575
5615 1.357115599301548 -1.6548573042323602 0.58083502287048738 167 140 110 0.80657468048427516 14 4360 2 8104 16 8464
5616 1.4977022402604503 -1.4995090949572178 -0.064715701878634124 151 130 105 0.50280089587878785 14 5193 2 8108 15 4447
5617 1.3510121595053948 -1.6724831066734021 0.90181833771549169 103 127 178 1.3152442926677963 14 4142 2 8111 17 13404
5618 1.5066637662870626 -1.5075122219039643 -0.0082792974075337426 114 77 42 0.71337173127287468 14 5191 2 8124 15 4230 3 7812
5619 1.5057233893425963 -1.5051408354385072 -0.1646720276849786 87 63 42 0.52700577018825401 14 5377 2 8125
5620 1.553434744092471 -1.4818673926804804 0.12256904141697107 81 44 18 0.27170750105454566 2 8128 15 3839
5621 1.5085487550200207 -1.5081387650919174 -0.16479333206826702 99 77 56 1.1960102338425982 14 5414 2 8132 3 7661
5622 1.3907289086972425 -1.6679812457922265 0.88448287988385421 183 157 153 0.74532830279555562 14 4280 2 8177 16 8160
5623 1.5117245393732051 -1.5195594097770089 -0.1103259603267441 127 98 68 0.65674533871304253 14 5411 2 8201 15 4598
5624 1.5238756172451591 -1.5134386869625569 -0.15997800673574658 143 128 108 1.3795866708019318 14 5612 2 8204 15 4810
5625 1.494535602234234 -1.5381366761220361 -0.22498653540709773 129 113 94 0.28291288650098695 14 5575 15 4984
5626 1.5173839168425469 -1.5140899777661507 0.19172566832296575 64 30 9 1.8112885801481207 14 5044 2 8209 15 3507
5627 1.5101550934769166 -1.5285264704442711 -0.0583287155231801 132 104 75 0.24493590781492844 14 5353 2 8213 3 7772
5628 1.3947840659260939 -1.6607810813361084 0.51179645210056446 115 86 60 0.76699109475040139 14 4571 2 8219 16 8674 3 8700
5629 1.4209703294157605 -1.6675146440028441 0.83122375750315447 164 136 113 0.79444755024206148 14 4494 2 8222 16 8325
5630 1.4470855750533178 -1.646016894694434 0.86615158759970323 166 150 154 1.0417311711045991 2 8226 16 8159 3 9320 4 11262
5631 1.5180030756282392 -1.5420911249725124 -0.1135932628387202 136 108 80 0.72680198580294153 14 5610 2 8228 3 7755
5632 1.3979656991115159 -1.6745416971034559 0.83555721600501287 207 171 129 1.0243067974092726 16 8321 3 9230
5633 1.5381263423499087 -1.5519425691576445 0.45441557041192726 118 98 79 1.3272712515778426 14 4964 2 8255
5634 1.6097359108441736 -1.4833233986160428 -0.27723728471182424 77 46 23 0.32797888263459191 14 6103 2 8313 15 5215
5635 1.6104693542829345 -1.4844139817508155 -0.27901976038146298 74 43 21 0.49856229035211275 14 6160 2 8316 15 5222
5636 1.5157210856250691 -1.6392586552958448 0.71281332422196553 196 162 121 2.1617072610593446 14 4922 2 8317
5637 1.5487486191415947 -1.5758695944676788 0.43190918901457126 95 55 23 0.68400494198918171 14 5177 2 8319 15 2381
5638 1.5511813809536106 -1.5591834142651777 0.079990051403492191 75 42 20 0.26353468547723558 14 5568 2 8321
5639 1.5058619046704556 -1.6199752702987564 0.43377773156584026 134 106 77 0.77455508658445249 14 5055 2 8323 16 8684
5640 1.6054425368605494 -1.5175999606784503 0.1171790204681093 84 50 24 0.420418490460362 14 5642 2 8324
5641 1.5514208812952111 -1.6388980027279407 0.82364821122866516 177 140 96 1.1094970983347947 14 4956 4 11389
5642 1.5303034514637872 -1.6436888876370821 0.66541926093835235 193 164 128 1.0020971753776022 14 5049 16 8662 16 8670 3 9103
5643 1.5309636240704318 -1.6444185544730796 0.67029145144648206 191 171 147 0.22997959938015161 14 5046 16 8669
5645 1.5486423887216176 -1.6385287290396804 0.82476384253160562 178 144 103 0.47011545706713465 14 4934 4 11390
5646 1.5335008029085557 -1.6139481813513818 0.12858212422513443 88 47 16 1.1589819268582726 14 5631 15 3661
5647 1.5450173920035821 -1.6435137735803491 0.57213458045771104 200 165 125 2.0513937608481823 14 5197 2 8403 16 8847 3 8999
5648 1.5388359116272377 -1.637225679618731 0.56387875017609101 197 163 124 1.6214657744479917 14 5198 2 8404 15 1668 3 8997
5649 1.5234425727181615 -1.6668788559173178 0.88141616434683412 136 137 158 0.50876544524506073 14 4900 2 8407 16 8517 3 9521
5650 1.5239755046990711 -1.6559360778068575 0.49294715224113433 205 180 151 1.2450972420983819 2 8410 16 8977 3 8877
5652 1.5545974380218093 -1.6304970101344545 0.45245554849947639 161 132 102 0.30828471813507052 14 5351 2 8417 15 2180
5653 1.5278821727197489 -1.6385924103534064 0.12106280574348474 73 35 12 0.19732341158214184 2 8419 15 3635
5654 1.5448910874594233 -1.6740556365250245 0.88606974859071697 134 134 155 1.7249117791580453 14 5042 2 8421 16 8667 3 9520
5655 1.538442501426295 -1.6441078088128791 0.61209034263385798 232 228 217 1.7002328145044181 14 5176 2 8429 16 8829 2 8379 3 9010
5656 1.5386452095662824 -1.6413413347007431 0.4990355944948085 232 225 210 2.0953357926270786 14 5217 2 8433
5657 1.5602625894973947 -1.6795719926535337 0.88207517433201188 172 139 98 1.8872779478206247 14 5082 2 8453
5658 1.5625346541151142 -1.6476834828145541 0.63320750628953015 230 228 218 0.18349375458937639 14 5248 2 8459
5659 1.5463822330983195 -1.6190487069032831 -0.078320526600314841 146 125 95 0.31377226193241664 14 6055 2 8480 15 4442
5660 1.5440789313782954 -1.6198583793735537 -0.079002893089721443 134 109 80 0.91786321289017669 14 6021 2 8481 15 4440 3 7971
5661 1.6770802937042326 -1.4994384696233372 -0.31992700734054264 90 48 19 0.42073471842892357 14 6596 2 8491 15 5362
5662 1.5423186843071688 -1.6763534479749425 0.88507417805813171 122 128 150 1.7701475581395549 14 5043 2 8496 16 8661 3 9532 3 9537 17 12393
5663 1.5734006510331497 -1.5990276170348785 -0.19179917066272814 133 100 64 0.6815377576045214 14 6239 2 8497 15 4881
5664 1.59553684781066 -1.6015199957719339 0.22203174467021847 112 78 42 0.90356753820250368 2 8501 16 8988 3 8466
5665 1.5580271991363097 -1.6172232144140806 -0.04372636794806789 86 61 37 1.3343631191757535 14 6020 2 8503 15 4311
5666 1.5807796912924019 -1.6378335372220647 0.41875202115222399 116 99 80 1.4856386980928729 14 5559 2 8506 16 9099
5667 1.5878890771220067 -1.6213320856694005 0.27901856466452779 114 89 61 0.77488580227793258 14 5780 2 8509 16 9101 3 8586
5668 1.5903558363580901 -1.5888510725605474 -0.23912161661121428 117 87 58 0.57736273172435393 14 6359 2 8511 15 5038 3 7779
5669 1.5858795520380367 -1.6241637473145076 0.2808913454382177 172 157 130 1.0372849455032556 14 5779 2 8513 16 9107 15 3090
5670 1.5874668476846718 -1.6232421094576293 0.28216676075761615 156 141 116 1.2613867088827111 14 5785 2 8514 16 9106 2 8508 15 3091
5671 1.5853170240720329 -1.6164501100864097 0.087961266895409326 97 69 44 0.35498844286372783 14 5963 15 3897
5672 1.5979859374786523 -1.6376965800658705 0.38129259110394287 165 145 117 0.78679245919859564 14 5772 2 8517 16 9118
5673 1.5850641715656855 -1.6566159751185903 0.59057402499119604 201 191 171 0.69122531682463317 14 5468 2 8519 16 8982 15 1658 3 9111
5674 1.5968346884135185 -1.6385547264736768 0.38351126613142611 181 165 138 1.1632562354526701 14 5663 2 8520 16 9117 15 2616 3 8783
5675 1.586008763273552 -1.6887182747902161 0.89073065850738786 183 150 109 0.34287690521595338 14 5216 2 8524
5676 1.6098117576103388 -1.6291723096274118 0.32851990637622369 216 194 161 0.11196037327964237 14 5820 2 8547
5677 1.5820574595265173 -1.6278836330318511 -0.11766182843718442 165 137 103 1.3869130993617169 14 6324 2 8557 3 7979
5679 1.5996112252977366 -1.6807499684085192 0.80163789944692077 170 134 92 1.7242898070930293 14 5395 2 8569 3 9489
5680 1.616940592185677 -1.6449552611388867 0.40828223307082051 222 212 194 1.266063802582772 14 5871 2 8582 16 9190
5681 1.6259744020962188 -1.6396749861796629 0.32970633392613891 199 176 146 2.5788495328157031 14 6011 2 8584
5682 1.6256319820376843 -1.627993362749218 0.29469541598392934 200 180 148 1.1589973722076059 14 5962 2 8586
5683 1.590570438547795 -1.6252642976410152 -0.10793153936793587 154 120 84 2.2987175918755471 14 6328 2 8592 3 8049
5684 1.6174802302835871 -1.6488373363622544 0.4477283332355087 224 207 179 0.65224750058077074 14 5797 2 8612 16 9132
5685 1.6615958248669132 -1.5928563449770288 0.18870019859025394 131 108 79 0.99347414503127407 14 6185 2 8613
5686 1.6244580158251944 -1.6179802190597026 -0.16632671098245921 50 30 13 0.73323703864729373 14 6574 3 7972
5687 1.6268786905709209 -1.6012643084989349 -0.21492465121541168 86 59 32 1.9777550516714522 14 6575 2 8617 3 7951
5688 1.6251025536065398 -1.6376410348863375 0.29948910623944791 192 177 150 0.72977178077309468 14 6013 2 8618 16 9231 15 3085
5689 1.6215222517750869 -1.6205036496047722 -0.19032140112646917 79 51 25 2.216016994463295 14 6580 2 8621 3 7966
5690 1.6331498548635228 -1.6831912298844909 0.70085837394152739 226 226 223 1.1338526841277006 14 5655 2 8634 16 9182
5691 1.6434129152802743 -1.6563839808312404 0.53696662458729061 229 228 220 0.59783601302095257 14 5817 2 8640
5692 1.6268144412064347 -1.6940252619228617 0.81301668495924939 175 138 95 0.8569838347362384 14 5493 2 8670 3 9579
5694 1.6549146699003836 -1.6736762950742077 0.67691276209738083 227 228 226 2.3568817873495078 14 5802 2 8677 16 9130
5695 1.663209889283721 -1.6643677292489611 0.54093376728039333 231 227 217 2.0610043161979976 14 6009 2 8680
5696 1.6421277864189205 -1.6559898605846417 0.42191621563457526 211 187 149 0.48944951244055318 14 5957 2 8682
5697 1.6637212442253648 -1.6441006884407414 0.38653934656554895 233 227 214 0.78357342951768227 2 8684 16 9259
5698 1.6450157776836978 -1.642850370564795 0.26492723397822099 201 182 158 0.82832755618323506 14 6200 2 8688 16 9365 15 3266
5699 1.6285511492987514 -1.6310911091149791 -0.27902492965572223 94 56 30 0.34074858979159578 14 6814 2 8710 15 5153
5700 1.649881415655108 -1.6764106548019155 0.59083209681807713 226 214 196 0.39300310044417985 14 5928 2 8717 16 9240 15 1743
5701 1.694674803623327 -1.6134020428270575 0.14635123117985971 120 79 46 0.91663156999001771 14 6455 2 8718 15 3822
5702 1.6354704221978522 -1.706556489288279 0.91268265035106988 117 89 58 1.2675518133060584 14 5485 2 8721 16 9116 3 9688 17 12018
5703 1.6488155390822383 -1.6865927072953657 0.67052660713648349 220 209 201 0.86112229279405295 14 5801 2 8725 16 9239 15 1382
5704 1.6612287689076246 -1.6186471276114291 -0.31364092310175429 115 86 57 1.9501438955271266 14 6963 2 8727 3 7866
5705 1.6646692868261903 -1.6946489608952677 0.70585812216446375 195 175 151 0.53666942483724389 14 5914 2 8734 16 9317 16 9352 14 5915 15 1299 3 9490 3 9491 2 8747
5706 1.6761406412415785 -1.7091348399954971 0.83876831595491741 67 37 16 1.0611761750810216 14 5809 2 8743
5707 1.6874945306501152 -1.6403849361716731 0.23981292951087022 234 228 218 1.1026668327618372 14 6356 2 8763
5708 1.7001460111780431 -1.6413434354471912 0.1991744924193101 225 216 201 1.0045120925904909 14 6533 2 8766
5709 1.7008665187923993 -1.6833476099774867 0.49402906983439943 220 213 200 0.55844052462714844 14 6268 15 2208
5710 1.7021478949028941 -1.6737233204601696 0.51120317637693247 218 205 183 1.7988020426441653 14 6225 2 8795
5711 1.686732592474951 -1.6645471088287214 0.39488236424080397 223 200 167 1.1574653737051925 14 6270 2 8799 16 9497
5712 1.6917483938868281 -1.6469264818179647 0.27745723049155013 228 223 208 1.0778950391611373 14 6404 2 8803 16 9469
5713 1.6582809534085077 -1.7308099683880167 0.93188748793509801 86 82 95 1.2233429239933347 14 5649 2 8823 16 9367 15 433 17 12073
5716 1.684989016676935 -1.6632591611787915 0.34294851368525914 227 205 175 0.91309842762881221 14 6323 2 8829 16 9504 3 8905
5717 1.6881561722539931 -1.6650751592322031 0.34282790155305276 232 217 193 1.0920697103204173 14 6326 2 8830 3 8942
5718 1.734539294002605 -1.6257932122680805 -0.12693345494096317 194 170 142 0.73964437182832521 14 7096 3 8202
5719 1.6690656204996632 -1.7456222874302543 0.94162327607592389 114 121 149 1.3303938551049876 14 5795 2 8842 16 9490 3 9862 3 9865 16 9489 17 12208 17 12209
5720 1.7282905587571769 -1.6923637067675914 0.60218117936086446 226 227 224 0.10665920998851558 14 6321 16 9513
5721 1.7152492587990174 -1.6186487644320706 0.053683544752079621 205 186 158 0.41747235255063597 14 6712 15 4146
5722 1.7139614677151536 -1.7104166682733173 0.75483730402678972 77 47 23 0.78373745080155621 14 6081 2 8851
5724 1.7030898086655029 -1.685943278685921 0.49229800772240051 158 120 79 0.97688752079329311 14 6311 2 8856 16 9521 15 2207 3 9215
5725 1.7132966957264637 -1.6708846768561798 0.33934145910445279 206 184 149 0.39816004681027306 14 6463 2 8859 16 9640 3 8978
5726 1.7403266211971182 -1.6469665912248801 0.18217103924744257 223 207 179 1.207236485430885 14 6754 2 8860
5727 1.7022194243501532 -1.7232949443726933 0.84483057180407262 155 124 88 0.6089885148132852 14 5949 2 8866
5728 1.7023523597015751 -1.7218904909305941 0.83997823480395528 152 121 86 0.73748807398847915 14 5950 2 8867
5730 1.7207828600330102 -1.6740681707400613 0.28166853346019721 231 229 217 0.99933953361090988 2 8888 16 9741
5731 1.6902693125515276 -1.7476246614997808 0.90014025777578222 174 137 96 1.3078645551542367 14 5947 2 8911 16 9512 3 9848
5732 1.7161763126249807 -1.6887387236695879 0.38672985616720507 208 185 153 0.53160373533797856 14 6485 2 8926
5733 1.7492496209069941 -1.6516127403542296 0.13983748550784694 215 202 177 1.8427919766563519 14 6871 2 8937
5734 1.7589440200402404 -1.6295084107094229 -0.041926739759739082 188 160 130 2.2541884188157582 14 7152 2 8944 3 8404
5735 1.7072440876567649 -1.7413112131138293 0.89406398625680161 130 93 78 0.13930901259506034 14 6051 16 9517
5736 1.7199695489030498 -1.7309932249494464 0.92489133597835627 136 88 51 0.90088218744791781 14 6052 2 8955 15 569
5737 1.7061261739184519 -1.7456354595658781 0.85642056092642005 177 141 100 1.3695376474794336 2 8962 15 734 3 9815
5738 1.7039468663319379 -1.729527385299253 0.75797472648003794 129 102 71 0.59324609146886842 14 6080 2 8963 16 9630 15 1124 3 9646
5739 1.7559508121599576 -1.6393175853731519 0.017322915812524306 215 188 149 0.95395770610199937 14 7075 2 8965 3 8504
5740 1.7491170619586647 -1.6453091911825131 0.0041748772576056968 205 176 137 1.0939236420374889 14 7052 2 8966 15 4361
5741 1.7681370430371153 -1.6219462533069431 -0.22925043636566195 196 173 147 1.874645596770254 14 7501 2 8968 3 8102
5742 1.7514686705200744 -1.7289093502963755 0.827363999418808 180 146 104 1.5495209216429124 14 6264 2 8969 16 9628 3 9774
5743 1.7502713013180127 -1.7296739421125427 0.82674226240559989 153 108 67 0.89053314993290533 14 6217 2 8971 16 9637 3 9770 2 8977
5744 1.7538518017338647 -1.6383897518742494 -0.10949655600141192 169 145 120 1.890976934115977 14 7233 2 8975 3 8307
5745 1.7243329451511966 -1.7377413863924152 0.73053909027214492 178 145 104 2.4594296332554095 14 6219 2 8978 16 9767
5746 1.7539694626038944 -1.6951767952022909 0.47169608210764508 199 176 155 1.071821981997704 14 6572 2 8980 16 9760 15 2392 3 9267
5748 1.7492901004000543 -1.6803639203622385 0.28228116888220589 231 231 227 0.41404011545641151 14 6750 2 8982
5749 1.7608117255899929 -1.6609476384620327 0.18040752680183658 216 202 179 0.7108565092246093 14 6870 2 8983
5750 1.75648903829475 -1.7432381584812442 0.84980820667510315 143 97 60 1.7953095498654361 14 6320 2 8993 16 9727
5751 1.7474470843564571 -1.7314400939947485 0.75679700858935828 168 130 90 0.58955973249101457 2 8998 16 9671 15 1216
5752 1.7554865787384264 -1.6802093571534167 0.28972635722465351 232 232 228 0.60556958574378483 14 6792 2 9015
5753 1.7692661584770866 -1.6782758980575412 0.2589789134857538 234 230 221 0.87186597237669217 14 6865 2 9016 16 9877
5754 1.769002169345933 -1.6763842392318526 0.25863050803493504 232 231 223 0.86140575520803364 2 9017 16 9813
5755 1.7633783304996702 -1.6748285287072828 0.21707612619440669 233 226 210 1.1430045864488525 14 6867 2 9018 16 9901
5756 1.7693154069570687 -1.6581276570161745 0.14213014774162905 221 197 163 1.6758461479600169 14 6961 2 9021 3 8701
5757 1.7840862867386487 -1.6392690200270168 -0.034262973573069101 189 162 131 0.9456308779946726 14 7252 2 9029 3 8541
5758 1.7795710668298472 -1.612198995834869 -0.27808084812254658 217 212 195 1.1853294715828409 14 7566 2 9038
5759 1.7857603806704512 -1.6064196697092985 -0.34028744340708483 182 154 117 0.58614343906123234 14 7690 2 9042
5760 1.7664656947308168 -1.6725678336644645 0.21847746907365956 229 222 207 1.0900664461146381 14 6868 2 9059 16 9878
5761 1.7755366865168891 -1.67033704149458 0.1768180908217164 220 210 195 0.87870558088657358 14 7002 2 9060
5763 1.7592133398355478 -1.7114736923548637 0.60458428571299327 114 88 62 1.4404721173667137 14 6477 2 9071 16 9758 3 9523 16 9651
5764 1.7814042174833427 -1.6509136906870296 -0.014674619672045542 201 177 141 0.210230085269829 14 7251 2 9073 15 4441
5765 1.7901462828467412 -1.7361405460364954 0.84063732916034695 63 39 21 1.4577800032143016 14 6445 2 9076 16 9756
5766 1.7956761050630097 -1.6245632717520255 -0.34770691640206536 212 191 163 0.94928343653754832 14 7836 2 9082 3 8052
5767 1.7971347544439462 -1.757124517045398 0.90919936132370061 149 110 74 1.3947700723877652 14 6444 16 9803 3 9934
5770 1.7842339878216196 -1.691856374079143 0.34210815455413607 188 170 155 0.52820972327924332 14 6862 2 9087 16 9898 3 9112
5772 1.8020272652759712 -1.6537967017988158 -0.048153274003959051 180 155 123 1.041554481285428 14 7480 2 9092 3 8566
5773 1.7965624029097373 -1.6539904184492227 -0.05410019015870228 176 146 113 0.53480288572993173 14 7447 2 9093 15 4551
5775 1.8391289770952413 -1.724290619049347 0.81218175218704947 73 50 32 2.2182938246421582 14 6652 2 9116
5776 1.8069588844066822 -1.7306065280454943 0.70740429320958276 117 81 50 1.7627474997089667 14 6607 2 9118 16 9895 3 9666
5777 1.8257641942363716 -1.723868913205775 0.67684481226721038 103 67 40 2.4549069452533088 14 6744 2 9119
5778 1.8213455329549955 -1.7153680001485785 0.62989676974382758 161 121 80 1.3387800710236815 14 6745 2 9122
5779 1.784096047182226 -1.7107719538909218 0.37019174418312484 80 49 21 1.236591101593749 14 6860 2 9129 16 10039
5780 1.7898294172673019 -1.700949316014901 0.3461066671977393 87 54 31 2.6622787186266095 14 6861 2 9130 16 10009
5781 1.7966855799474182 -1.6920106596314011 0.28859721702377045 211 183 153 0.85594172278937408 14 7049 2 9133 16 9921 3 9044
5782 1.7999064336511039 -1.6897663637890079 0.27714290147695675 232 228 218 2.6903080135037363 14 6960 2 9135 16 10012
5783 1.8076701881047241 -1.6795184297809658 0.20153517215756481 230 224 211 1.9008435085060942 14 7106 2 9137 16 10016
5784 1.8239586060379565 -1.6732407965063545 0.17014827596449028 224 205 178 1.6024437901541113 14 7248 2 9139 16 10018
5785 1.8172867695018391 -1.6651303613910577 0.13135369626408486 212 198 173 1.4234834096341011 14 7231 2 9141 16 9927
5786 1.8104194669656843 -1.6706979761792633 0.039997362615089009 224 204 180 1.1699856831565332 14 7441 2 9144
5788 1.8367219313873917 -1.7283305747886653 0.80922059502077781 73 50 32 1.7387221176786645 14 6651 2 9160
5789 1.8351532537581963 -1.714537701063805 0.5868545803449462 171 137 97 2.5360674417154097 14 6857 2 9163
5790 1.8095091745076395 -1.6458132301972226 -0.23898756641946792 181 160 130 1.8614961922696038 14 7732 2 9183 15 5156
5791 1.8254494373322239 -1.6454739297639569 -0.26191075724094981 196 185 162 0.24496770294364287 14 7856 2 9193 15 5212
5792 1.8533414312191419 -1.7217830998283565 0.59886239507328731 146 105 66 2.327446339295308 14 6933 2 9194 14 6942 16 9944 3 9583
5793 1.8981588000208278 -1.5757635477496326 -0.36473096203747885 134 104 79 0.62219554543589606 14 8263 15 5565
5794 1.8165861720065168 -1.7591028344841058 0.82852038674515183 60 40 24 0.81349366237176934 14 6590 2 9200 16 9920
5795 1.8167050270860503 -1.6889483667768916 0.045808455953405512 188 174 151 0.69315980008329703 14 7500 15 4225
5796 1.8554855803194561 -1.7416059384916178 0.80614849306949132 73 48 28 0.80438688744402609 14 6740 2 9209
5797 1.8481811897615015 -1.725354967624789 0.46528934998230037 192 165 138 2.3575741065861222 14 7138 2 9210
5799 1.8266843721564874 -1.685971770361067 0.059492860484080728 219 196 162 2.4120848395265257 14 7553 15 4156
5800 1.8347438208657669 -1.680302898850961 0.054934149193018242 156 131 104 0.32607243147145004 14 7519 2 9219
5801 1.8776750810201739 -1.7366110363392968 0.77859891671473336 78 55 36 2.1011747608946791 14 6853 2 9236
5802 1.8648981894722427 -1.7357116160436945 0.63917905700964206 77 54 34 2.5093031431769601 14 6992 2 9240
5803 1.8546063392489318 -1.7306680732489224 0.59398031376454929 78 53 33 1.2441975699807302 14 6955 2 9241
5805 1.8621817675916152 -1.7037312739360255 0.36081467126955435 171 143 110 1.3720698858966327 14 7286 2 9249
5806 1.8175974620496811 -1.7173898779161936 0.33636034889126076 164 129 93 1.058369674802504 14 7104 2 9250 16 10112
5807 1.8309352376544754 -1.7013116180294097 0.23038902591734342 213 188 160 0.79389993641067047 14 7334 2 9255
5808 1.8368911788674152 -1.7006043763548224 0.19297845501189281 229 220 203 0.31446336542436759 14 7395 2 9257
5809 1.8349628895477561 -1.6847228237445218 0.12195623705351669 213 185 144 0.95450901055608084 14 7477 2 9260 16 10120
5810 1.8359575421628211 -1.6793175867153212 0.048548443637081322 228 230 220 1.3232083947525446 14 7556 2 9262 3 8770
5811 1.8534504247026975 -1.6707800009158496 -0.063053873505225247 180 155 127 1.2352962015569151 14 7816 2 9266
5812 1.8498106001262897 -1.65071361465208 -0.12604058166386747 233 223 204 1.4417741132661521 14 7769 2 9269
5814 1.8178896075306892 -1.7273184330328175 0.46082023376275566 157 115 83 1.9987783872864615 14 6949 2 9290 16 10054 3 9396
5815 1.8445716691127887 -1.722092791096024 0.35230543589343893 183 153 117 0.30663005025543993 14 7243 16 10199 3 9271
5816 1.8551261428466383 -1.6668702044561319 -0.085502351251463021 192 170 139 0.47139728564488298 14 7829 2 9302 15 4731
5818 1.8197724004658455 -1.7239134095460587 0.46199421536749202 139 101 73 0.89109833029839303 14 6958 16 10052
5819 1.8397530397373851 -1.7046899428956255 0.2743184006849208 164 133 100 1.2871190497635361 14 7246 2 9315 16 10174 3 9118
5820 1.8399796670138453 -1.7000823153319149 0.27645880172200055 181 150 116 1.6948991955099448 14 7230 2 9316 16 10114 15 3448 3 9114
5821 1.8841279661215247 -1.6676371931547671 0.056222657198480672 219 187 156 2.1273563077654862 14 7711 15 4298
5822 1.8817670947028422 -1.668398316476488 0.050336497011508656 218 190 161 1.1811908386802989 14 7724 15 4308
5823 1.8521995784321721 -1.6681786471042832 -0.088480873413414471 195 174 145 1.1841517620389996 14 7834 2 9321 15 4738
5825 1.8653590931043842 -1.7728843385191424 0.92097552079783007 67 46 27 1.3222587172429361 14 6715 2 9330 16 10053 3 10045
5826 1.8683616987421794 -1.7283686811867418 0.48803994763508268 92 72 56 1.3652662645160489 14 7213 16 10168 15 2599
5827 1.8509369146033963 -1.7172068909978522 0.27919468540782644 125 101 72 1.2694497431047913 14 7376 2 9335 16 10265 3 9128
5828 1.8660312553819494 -1.6601341792693347 -0.21029689710940286 222 203 175 0.11176093393905566 14 8118 2 9336 15 5105
5829 1.8685805121846022 -1.6592740196995222 -0.21038412335863393 218 193 160 0.65689121335073863 14 8119 2 9337 15 5104
5830 1.8527481633823957 -1.7190496608525474 0.27934843293115402 151 125 96 1.6756896139892432 14 7393 2 9338 16 10264 16 10266 3 9200
5831 1.8635372094420926 -1.6862185145285804 0.041476017682195332 188 155 128 0.83778266722486661 14 7720 2 9339 3 8794
5832 1.864889800562938 -1.6982121872001574 0.088104037184826331 227 218 200 0.12334210667098829 14 7708 2 9344 15 4094
5833 1.8717395803482113 -1.7855927322546801 0.96581423092905538 59 32 15 0.0058201202453871913 2 9347 15 646
5836 1.8766943250573997 -1.6908566263659506 0.10860417150987821 207 174 136 1.0197604117097046 14 7671 2 9355
5838 1.8869821630677703 -1.7552815847264402 0.82094171137738847 73 48 27 1.4158543971776938 14 6851 2 9376
5839 1.9251467021575011 -1.7382066236690821 0.83429605376638283 81 58 35 1.3569300670730295 14 6988 15 1257
5840 1.9034658210460682 -1.7461846826430623 0.78704818958656242 80 58 36 0.42372682410899337 14 6947 2 9379
5841 1.8745719072467328 -1.7534538418733985 0.68084290414702586 81 56 33 1.0135369933348009 14 6990 2 9381
5842 1.8888131228461655 -1.7487739360954018 0.64463323529687755 78 53 31 0.42138257421474135 14 7103 2 9383
5843 1.9089304511384451 -1.7352712155052101 0.64568032606637327 78 53 31 1.5311536967522472 14 7133 16 10162
5844 1.9087360976586523 -1.7342286247055814 0.57752083900520845 74 49 29 1.4871230763909922 14 7280 2 9387
5845 1.8871769942801861 -1.7167448488377832 0.36614967860695063 143 107 69 0.4393436032502811 14 7435 2 9396
